# .PCD v0.7 - Point Cloud Data file format
VERSION 0.7
FIELDS x y z
SIZE 4 4 4
TYPE F F F
COUNT 1 1 1
WIDTH 2085
HEIGHT 1
VIEWPOINT 0 0 0 1 0 0 0
POINTS 2085
DATA ascii
12.45 0.25 0.65000004
12.45 0.25 0.75
12.45 0.25 0.85000002
12.45 0.25 1.0500001
12.45 0.25 1.15
12.45 0.25 1.25
12.45 0.25 1.75
12.45 0.25 1.85
12.45 0.25 1.95
12.45 0.25 2.05
12.45 0.25 2.1500001
12.45 0.25 2.25
12.45 0.25 2.3500001
12.45 0.25 2.45
12.45 0.25 2.55
12.45 0.25 2.6500001
12.45 0.25 3.8500001
12.45 0.25 3.95
12.45 0.25 4.0500002
12.45 0.34999999 -1.45
12.45 0.34999999 -1.35
12.45 0.34999999 -1.25
12.45 0.34999999 -1.15
12.45 0.34999999 -1.0500001
12.45 0.34999999 -0.94999999
12.45 0.34999999 -0.85000002
12.45 0.34999999 -0.75
12.45 0.34999999 -0.65000004
12.45 0.34999999 -0.55000001
12.45 0.34999999 -0.45000002
12.45 0.34999999 -0.34999999
12.45 0.34999999 -0.25
12.45 0.34999999 -0.15000001
12.45 0.34999999 -0.050000001
12.45 0.34999999 2.45
12.45 0.34999999 2.55
12.45 0.34999999 2.6500001
12.45 0.34999999 2.75
12.45 0.34999999 3.55
12.45 0.34999999 3.6500001
12.45 0.34999999 3.75
12.45 0.34999999 3.8500001
12.45 0.34999999 3.95
12.45 0.34999999 4.0500002
12.45 0.34999999 4.1500001
12.45 0.45000002 -1.45
12.45 0.45000002 -1.35
12.45 0.45000002 -1.25
12.45 0.45000002 -1.15
12.45 0.45000002 -1.0500001
12.45 0.45000002 -0.94999999
12.45 0.45000002 -0.85000002
12.45 0.45000002 2.6500001
12.45 0.45000002 2.75
12.45 0.45000002 2.8500001
12.45 0.45000002 3.55
12.45 0.45000002 3.6500001
12.45 0.45000002 3.75
12.45 0.45000002 3.95
12.45 0.45000002 4.0500002
12.45 0.55000001 2.6500001
12.45 0.55000001 2.75
12.45 0.55000001 2.8500001
12.45 0.55000001 2.95
12.45 0.55000001 3.05
12.45 0.55000001 3.1500001
12.45 0.55000001 3.25
12.45 0.55000001 3.55
12.45 0.55000001 3.6500001
12.45 0.55000001 3.75
12.45 0.55000001 3.8500001
12.45 0.55000001 3.95
12.45 0.55000001 4.0500002
12.45 0.65000004 2.75
12.45 0.65000004 2.8500001
12.45 0.65000004 2.95
12.45 0.65000004 3.05
12.45 0.65000004 3.1500001
12.45 0.65000004 3.25
12.45 0.65000004 3.55
12.45 0.65000004 3.6500001
12.45 0.75 2.8500001
12.45 0.75 2.95
12.45 0.75 3.05
12.45 0.75 3.1500001
12.45 0.75 3.25
12.45 0.85000002 2.8500001
12.45 0.85000002 2.95
12.45 0.85000002 3.05
12.45 0.85000002 3.1500001
12.45 0.94999999 2.75
12.45 0.94999999 2.8500001
12.45 0.94999999 2.95
12.45 0.94999999 3.05
12.45 1.0500001 2.6500001
12.45 1.0500001 2.75
12.45 1.0500001 2.8500001
12.45 1.0500001 2.95
12.45 1.0500001 3.6500001
12.45 1.0500001 3.75
12.45 1.0500001 3.8500001
12.45 1.0500001 3.95
12.45 1.15 2.55
12.45 1.15 2.6500001
12.45 1.15 2.75
12.45 1.15 2.8500001
12.45 1.15 2.95
12.45 1.15 3.05
12.45 1.15 3.1500001
12.45 1.15 3.25
12.45 1.15 3.55
12.45 1.15 3.6500001
12.45 1.15 3.75
12.45 1.15 3.8500001
12.45 1.15 3.95
12.45 1.15 4.0500002
12.45 1.15 4.1500001
12.45 1.15 4.25
12.45 1.25 2.8500001
12.45 1.25 2.95
12.45 1.25 3.05
12.45 1.25 3.1500001
12.45 1.25 3.25
12.45 1.25 3.3500001
12.45 1.25 3.45
12.45 1.25 3.55
12.45 1.25 3.6500001
12.45 1.25 3.75
12.45 1.25 3.8500001
12.45 1.25 3.95
12.45 1.25 4.0500002
12.45 1.25 4.1500001
12.45 1.35 2.75
12.45 1.35 2.95
12.45 1.35 3.05
12.45 1.35 3.1500001
12.45 1.35 3.25
12.45 1.35 3.3500001
12.45 1.35 3.45
12.45 1.35 3.55
12.45 1.35 4.0500002
12.45 1.35 4.1500001
12.45 1.45 3.25
12.45 1.45 3.3500001
12.45 1.45 3.45
12.45 1.45 3.55
12.45 1.45 3.95
12.45 1.45 4.0500002
12.45 1.5500001 2.8500001
12.45 1.5500001 2.95
12.45 1.5500001 3.05
12.45 1.5500001 3.1500001
12.45 1.5500001 3.25
12.45 1.5500001 3.3500001
12.45 1.5500001 3.45
12.45 1.5500001 3.55
12.45 1.5500001 3.6500001
12.45 1.5500001 3.75
12.45 1.5500001 3.8500001
12.45 1.5500001 4.1500001
12.45 1.5500001 4.25
12.45 1.65 2.6500001
12.45 1.65 2.75
12.45 1.65 2.8500001
12.45 1.65 2.95
12.45 1.65 3.05
12.45 1.65 3.1500001
12.45 1.65 3.25
12.45 1.65 3.55
12.45 1.65 3.6500001
12.45 1.65 3.75
12.45 1.65 3.8500001
12.45 1.65 3.95
12.45 1.65 4.0500002
12.45 1.75 2.55
12.45 1.75 2.6500001
12.45 1.75 2.75
12.45 1.75 2.8500001
12.45 1.75 2.95
12.45 1.85 2.55
12.45 1.85 2.6500001
12.45 1.85 2.75
12.45 1.95 2.55
12.45 1.95 2.6500001
12.45 1.95 2.75
12.45 1.95 2.8500001
12.45 2.05 2.55
12.45 2.05 2.6500001
12.45 2.05 2.75
12.45 2.05 2.8500001
12.45 2.1500001 2.55
12.45 2.1500001 2.6500001
12.45 2.1500001 2.75
12.45 2.1500001 2.8500001
12.45 2.25 2.45
12.45 2.25 2.55
12.45 2.25 2.6500001
12.45 2.3500001 0.050000001
12.45 2.3500001 0.15000001
12.45 2.3500001 0.25
12.45 2.3500001 0.34999999
12.45 2.3500001 0.45000002
12.45 2.3500001 0.55000001
12.45 2.3500001 0.65000004
12.45 2.3500001 0.75
12.45 2.3500001 0.85000002
12.45 2.3500001 0.94999999
12.45 2.3500001 1.0500001
12.45 2.3500001 1.15
12.45 2.3500001 1.25
12.45 2.3500001 1.35
12.45 2.3500001 1.45
12.45 2.3500001 1.5500001
12.45 2.3500001 1.65
12.45 2.3500001 1.75
12.45 2.3500001 1.85
12.45 2.3500001 1.95
12.45 2.3500001 2.05
12.45 2.3500001 2.1500001
12.45 2.3500001 2.25
12.45 2.3500001 2.3500001
12.45 2.3500001 2.45
12.45 2.3500001 2.55
12.45 2.45 -1.65
12.45 2.45 -1.5500001
12.45 2.45 -1.45
12.45 2.45 -1.35
12.45 2.45 -1.25
12.45 2.45 -1.15
12.45 2.45 -0.94999999
12.45 2.45 -0.85000002
12.45 2.45 -0.75
12.45 2.45 -0.65000004
12.45 2.45 -0.55000001
12.45 2.45 -0.050000001
12.45 2.45 0.050000001
12.45 2.45 0.15000001
12.45 2.45 0.45000002
12.45 2.45 0.55000001
12.45 2.45 0.65000004
12.45 2.45 0.75
12.45 2.45 0.85000002
12.45 2.45 0.94999999
12.45 2.45 1.0500001
12.45 2.45 1.15
12.45 2.45 1.25
12.45 2.45 1.35
12.45 2.45 1.45
12.45 2.45 1.5500001
12.45 2.45 1.65
12.45 2.45 1.85
12.45 2.45 1.95
12.45 2.45 2.05
12.45 2.45 2.1500001
12.45 2.45 2.25
12.45 2.45 2.3500001
12.45 2.45 2.45
12.45 2.55 -1.75
12.45 2.55 -1.65
12.45 2.55 -1.5500001
12.45 2.55 -1.45
12.45 2.55 -1.35
12.45 2.55 -1.25
12.45 2.55 -1.15
12.45 2.55 -1.0500001
12.45 2.55 -0.94999999
12.45 2.55 -0.85000002
12.45 2.55 -0.75
12.45 2.55 -0.65000004
12.45 2.55 -0.55000001
12.45 2.55 -0.45000002
12.45 2.55 -0.34999999
12.45 2.55 -0.25
12.45 2.55 -0.15000001
12.45 2.55 -0.050000001
12.45 2.55 0.050000001
12.45 2.55 0.15000001
12.45 2.55 0.25
12.45 2.55 0.34999999
12.45 2.55 0.45000002
12.45 2.55 0.55000001
12.45 2.55 0.65000004
12.45 2.55 0.75
12.45 2.55 0.85000002
12.45 2.55 0.94999999
12.45 2.55 1.0500001
12.45 2.55 1.15
12.45 2.55 1.25
12.45 2.55 1.35
12.45 2.55 1.45
12.45 2.55 1.5500001
12.45 2.55 1.65
12.45 2.55 1.75
12.45 2.55 1.85
12.45 2.55 1.95
12.45 2.55 2.05
12.45 2.55 2.1500001
12.45 2.55 2.25
12.45 2.55 2.3500001
12.45 2.6500001 -1.15
12.45 2.6500001 -0.45000002
12.45 2.6500001 -0.34999999
12.45 2.6500001 -0.25
12.45 2.6500001 -0.15000001
12.45 2.6500001 0.050000001
12.45 2.6500001 0.15000001
12.45 2.6500001 0.55000001
12.45 2.6500001 0.65000004
12.45 2.6500001 0.75
12.45 2.6500001 0.85000002
12.45 2.6500001 0.94999999
12.45 2.6500001 1.0500001
12.45 2.6500001 1.15
12.45 2.6500001 1.25
12.45 2.6500001 1.35
12.45 2.6500001 1.45
12.45 2.6500001 1.5500001
12.45 2.6500001 1.65
12.45 2.6500001 1.75
12.45 2.6500001 1.85
12.45 2.6500001 1.95
12.45 2.6500001 2.05
12.45 2.75 -0.25
12.45 2.75 -0.15000001
12.45 2.75 -0.050000001
12.45 2.75 0.45000002
12.45 2.75 0.65000004
12.45 2.75 0.75
12.45 2.75 0.85000002
12.45 2.8500001 0.25
12.45 2.8500001 0.34999999
12.45 2.8500001 0.45000002
12.45 2.8500001 0.55000001
12.45 2.8500001 0.65000004
12.45 3.8500001 0.94999999
12.45 3.8500001 1.0500001
12.45 3.8500001 1.15
12.45 3.8500001 1.25
12.45 3.8500001 1.35
12.45 3.95 0.85000002
12.45 3.95 0.94999999
12.45 3.95 1.0500001
12.45 3.95 1.15
12.45 3.95 1.25
12.45 3.95 1.35
12.45 3.95 1.45
12.45 4.0500002 0.55000001
12.45 4.0500002 0.65000004
12.45 4.0500002 0.75
12.45 4.0500002 0.85000002
12.45 4.0500002 1.45
12.45 4.1500001 0.45000002
12.45 4.1500001 0.55000001
12.45 4.1500001 0.65000004
12.45 4.1500001 0.75
12.45 4.1500001 0.85000002
12.45 4.1500001 1.45
12.45 4.1500001 1.5500001
12.45 4.25 0.34999999
12.45 4.25 0.45000002
12.45 4.25 0.65000004
12.45 4.25 0.75
12.45 4.25 1.5500001
12.45 4.25 1.65
12.45 4.25 1.75
12.45 4.25 1.85
12.45 4.25 1.95
12.45 4.25 2.05
12.45 4.25 2.1500001
12.45 4.3499999 0.34999999
12.45 4.3499999 0.45000002
12.45 4.3499999 0.65000004
12.45 4.3499999 0.75
12.45 4.3499999 0.85000002
12.45 4.3499999 1.45
12.45 4.3499999 1.5500001
12.45 4.3499999 1.65
12.45 4.3499999 1.75
12.45 4.3499999 1.85
12.45 4.3499999 1.95
12.45 4.3499999 2.05
12.45 4.3499999 2.1500001
12.45 4.3499999 2.25
12.45 4.3499999 2.3500001
12.45 4.3499999 2.45
12.45 4.4500003 0.34999999
12.45 4.4500003 0.45000002
12.45 4.4500003 0.65000004
12.45 4.4500003 0.75
12.45 4.4500003 0.85000002
12.45 4.4500003 1.45
12.45 4.4500003 1.5500001
12.45 4.4500003 1.65
12.45 4.4500003 1.75
12.45 4.4500003 1.85
12.45 4.4500003 1.95
12.45 4.4500003 2.05
12.45 4.4500003 2.1500001
12.45 4.4500003 2.25
12.45 4.4500003 2.3500001
12.45 4.4500003 2.45
12.45 4.4500003 2.55
12.45 4.5500002 0.34999999
12.45 4.5500002 1.5500001
12.45 4.5500002 1.65
12.45 4.5500002 1.75
12.45 4.5500002 1.85
12.45 4.5500002 1.95
12.45 4.5500002 2.1500001
12.45 4.5500002 2.25
12.45 4.5500002 2.45
12.45 4.5500002 2.55
12.45 4.6500001 0.34999999
12.45 4.6500001 1.65
12.45 4.6500001 1.75
12.45 4.6500001 1.85
12.45 4.6500001 2.1500001
12.45 4.6500001 2.25
12.45 4.6500001 2.45
12.45 4.6500001 2.55
12.45 4.6500001 2.6500001
12.45 4.75 1.65
12.45 4.75 1.75
12.45 4.75 1.85
12.45 4.75 2.25
12.45 4.75 2.3500001
12.45 4.75 2.45
12.45 4.75 2.55
12.45 4.75 2.6500001
12.45 4.8499999 1.65
12.45 4.8499999 1.75
12.45 4.8499999 1.85
12.45 4.8499999 1.95
12.45 4.8499999 2.05
12.45 4.8499999 2.25
12.45 4.8499999 2.3500001
12.45 4.8499999 2.45
12.45 4.8499999 2.55
12.45 4.8499999 2.6500001
12.45 4.8499999 2.75
12.45 4.9500003 1.65
12.45 4.9500003 1.75
12.45 4.9500003 1.85
12.45 4.9500003 1.95
12.45 4.9500003 2.05
12.45 4.9500003 2.25
12.45 4.9500003 2.3500001
12.45 4.9500003 2.45
12.45 4.9500003 2.6500001
12.45 4.9500003 2.75
12.45 5.0500002 1.65
12.45 5.0500002 1.75
12.45 5.0500002 1.85
12.45 5.0500002 1.95
12.45 5.0500002 2.05
12.45 5.0500002 2.1500001
12.45 5.0500002 2.25
12.45 5.0500002 2.3500001
12.45 5.0500002 2.45
12.45 5.0500002 2.55
12.45 5.0500002 2.6500001
12.45 5.0500002 2.75
12.45 5.0500002 2.8500001
12.45 5.1500001 1.35
12.45 5.1500001 1.5500001
12.45 5.1500001 1.65
12.45 5.1500001 1.75
12.45 5.1500001 1.85
12.45 5.1500001 1.95
12.45 5.1500001 2.05
12.45 5.1500001 2.1500001
12.45 5.1500001 2.45
12.45 5.1500001 2.55
12.45 5.1500001 2.6500001
12.45 5.1500001 2.75
12.45 5.1500001 2.8500001
12.45 5.1500001 2.95
12.45 5.25 1.25
12.45 5.25 1.35
12.45 5.25 1.45
12.45 5.25 1.5500001
12.45 5.25 1.65
12.45 5.25 1.75
12.45 5.25 1.85
12.45 5.25 1.95
12.45 5.25 2.05
12.45 5.25 2.1500001
12.45 5.25 2.25
12.45 5.25 2.45
12.45 5.25 2.55
12.45 5.25 2.6500001
12.45 5.25 2.75
12.45 5.25 2.8500001
12.45 5.25 2.95
12.45 5.25 3.05
12.45 5.3499999 0.75
12.45 5.3499999 1.25
12.45 5.3499999 1.45
12.45 5.3499999 1.5500001
12.45 5.3499999 1.65
12.45 5.3499999 1.75
12.45 5.3499999 1.85
12.45 5.3499999 2.3500001
12.45 5.3499999 2.45
12.45 5.3499999 2.6500001
12.45 5.3499999 2.8500001
12.45 5.3499999 2.95
12.45 5.3499999 3.05
12.45 5.3499999 3.1500001
12.45 5.4500003 0.65000004
12.45 5.4500003 0.75
12.45 5.4500003 1.35
12.45 5.4500003 1.45
12.45 5.4500003 1.5500001
12.45 5.4500003 1.65
12.45 5.4500003 1.75
12.45 5.4500003 2.45
12.45 5.4500003 2.55
12.45 5.4500003 2.75
12.45 5.4500003 2.8500001
12.45 5.4500003 2.95
12.45 5.4500003 3.05
12.45 5.4500003 3.1500001
12.45 5.5500002 1.15
12.45 5.5500002 1.25
12.45 5.5500002 1.35
12.45 5.5500002 1.45
12.45 5.5500002 1.5500001
12.45 5.5500002 1.65
12.45 5.5500002 1.75
12.45 5.5500002 2.45
12.45 5.5500002 2.55
12.45 5.5500002 2.75
12.45 5.5500002 2.95
12.45 5.5500002 3.05
12.45 5.5500002 3.1500001
12.45 5.6500001 0.050000001
12.45 5.6500001 1.15
12.45 5.6500001 1.25
12.45 5.6500001 1.35
12.45 5.6500001 2.55
12.45 5.6500001 2.75
12.45 5.6500001 2.8500001
12.45 5.6500001 2.95
12.45 5.6500001 3.05
12.45 5.6500001 3.1500001
12.45 5.75 1.0500001
12.45 5.75 1.15
12.45 5.75 1.25
12.45 5.75 1.35
12.45 5.75 2.55
12.45 5.75 2.6500001
12.45 5.75 2.75
12.45 5.75 2.8500001
12.45 5.75 2.95
12.45 5.75 3.1500001
12.45 5.8499999 1.0500001
12.45 5.8499999 1.15
12.45 5.8499999 2.55
12.45 5.8499999 2.6500001
12.45 5.8499999 2.75
12.45 5.8499999 2.8500001
12.45 5.8499999 2.95
12.45 5.8499999 3.05
12.45 5.8499999 3.1500001
12.45 5.9500003 1.0500001
12.45 5.9500003 1.15
12.45 5.9500003 2.55
12.45 5.9500003 2.6500001
12.45 5.9500003 2.75
12.45 5.9500003 2.8500001
12.45 5.9500003 2.95
12.45 5.9500003 3.05
12.45 5.9500003 3.25
12.45 5.9500003 3.3500001
12.45 5.9500003 3.45
12.45 5.9500003 3.55
12.45 5.9500003 4.0500002
12.45 6.0500002 0.45000002
12.45 6.0500002 0.75
12.45 6.0500002 2.55
12.45 6.0500002 2.6500001
12.45 6.0500002 2.75
12.45 6.0500002 2.8500001
12.45 6.0500002 3.05
12.45 6.0500002 3.1500001
12.45 6.0500002 3.25
12.45 6.0500002 3.3500001
12.45 6.0500002 3.45
12.45 6.0500002 3.55
12.45 6.0500002 3.6500001
12.45 6.0500002 3.75
12.45 6.0500002 3.8500001
12.45 6.0500002 3.95
12.45 6.0500002 4.0500002
12.45 6.1500001 -0.75
12.45 6.1500001 0.94999999
12.45 6.1500001 1.15
12.45 6.1500001 1.85
12.45 6.1500001 2.45
12.45 6.1500001 2.55
12.45 6.1500001 2.6500001
12.45 6.1500001 2.75
12.45 6.1500001 2.8500001
12.45 6.1500001 2.95
12.45 6.1500001 3.05
12.45 6.1500001 3.1500001
12.45 6.1500001 3.25
12.45 6.1500001 3.3500001
12.45 6.1500001 3.45
12.45 6.1500001 3.55
12.45 6.1500001 3.6500001
12.45 6.1500001 3.75
12.45 6.1500001 3.8500001
12.45 6.1500001 3.95
12.45 6.25 -0.85000002
12.45 6.25 -0.75
12.45 6.25 2.55
12.45 6.25 2.6500001
12.45 6.25 2.75
12.45 6.25 2.8500001
12.45 6.25 2.95
12.45 6.25 3.05
12.45 6.25 3.1500001
12.45 6.25 3.25
12.45 6.25 3.3500001
12.45 6.25 3.6500001
12.45 6.25 3.75
12.45 6.25 3.8500001
12.45 6.25 3.95
12.45 6.25 4.0500002
12.45 6.3499999 -0.85000002
12.45 6.3499999 2.45
12.45 6.3499999 2.55
12.45 6.3499999 2.6500001
12.45 6.3499999 2.75
12.45 6.3499999 2.8500001
12.45 6.3499999 3.1500001
12.45 6.3499999 3.25
12.45 6.3499999 3.3500001
12.45 6.3499999 3.75
12.45 6.3499999 3.8500001
12.45 6.3499999 3.95
12.45 6.3499999 4.0500002
12.45 6.4500003 2.45
12.45 6.4500003 2.55
12.45 6.4500003 2.6500001
12.45 6.4500003 2.75
12.45 6.4500003 3.25
12.45 6.4500003 3.3500001
12.45 6.4500003 3.45
12.45 6.4500003 3.55
12.45 6.4500003 3.6500001
12.45 6.4500003 3.75
12.45 6.4500003 3.8500001
12.45 6.4500003 3.95
12.45 6.4500003 4.0500002
12.45 6.5500002 2.45
12.45 6.5500002 2.55
12.45 6.5500002 2.6500001
12.45 6.5500002 2.75
12.45 6.5500002 2.8500001
12.45 6.5500002 2.95
12.45 6.5500002 3.05
12.45 6.5500002 3.3500001
12.45 6.5500002 3.45
12.45 6.5500002 3.55
12.45 6.5500002 3.6500001
12.45 6.5500002 3.75
12.45 6.5500002 3.8500001
12.45 6.5500002 3.95
12.45 6.6500001 2.45
12.45 6.6500001 2.6500001
12.45 6.6500001 2.75
12.45 6.6500001 2.8500001
12.45 6.6500001 2.95
12.45 6.6500001 3.05
12.45 6.6500001 3.1500001
12.45 6.6500001 3.25
12.45 6.6500001 3.3500001
12.45 6.6500001 3.45
12.45 6.6500001 3.55
12.45 6.6500001 3.6500001
12.45 6.6500001 3.75
12.45 6.6500001 3.8500001
12.45 6.6500001 3.95
12.45 6.6500001 4.0500002
12.45 6.75 2.45
12.45 6.75 2.55
12.45 6.75 2.6500001
12.45 6.75 3.1500001
12.45 6.75 3.25
12.45 6.75 3.3500001
12.45 6.75 3.45
12.45 6.75 3.55
12.45 6.75 3.6500001
12.45 6.75 3.75
12.45 6.75 3.8500001
12.45 6.75 3.95
12.45 6.8499999 3.1500001
12.45 6.8499999 3.25
12.45 6.8499999 3.3500001
12.45 6.8499999 3.45
12.45 6.8499999 3.55
12.45 6.8499999 3.6500001
12.45 6.8499999 3.8500001
12.45 6.8499999 3.95
12.45 6.8499999 4.0500002
12.45 6.8499999 4.1500001
12.45 6.8499999 4.25
12.45 6.9500003 3.25
12.45 6.9500003 3.3500001
12.45 6.9500003 3.55
12.55 -3.25 1.45
12.55 -3.25 2.05
12.55 -3.1500001 1.5500001
12.55 -2.8500001 1.5500001
12.55 -2.8500001 1.95
12.55 -1.15 2.1500001
12.55 -1.0500001 1.65
12.55 -1.0500001 1.75
12.55 -1.0500001 2.05
12.55 -1.0500001 2.1500001
12.55 -0.94999999 0.94999999
12.55 -0.94999999 1.0500001
12.55 -0.94999999 1.25
12.55 -0.94999999 1.35
12.55 -0.94999999 1.45
12.55 -0.94999999 1.5500001
12.55 -0.94999999 1.65
12.55 -0.94999999 2.25
12.55 -0.85000002 0.85000002
12.55 -0.85000002 1.0500001
12.55 -0.85000002 1.15
12.55 -0.85000002 2.1500001
12.55 -0.85000002 2.25
12.55 -0.75 1.15
12.55 -0.75 2.25
12.55 -0.65000004 0.75
12.55 -0.65000004 0.85000002
12.55 -0.65000004 0.94999999
12.55 -0.65000004 1.0500001
12.55 -0.65000004 1.15
12.55 -0.65000004 1.65
12.55 -0.65000004 1.85
12.55 -0.65000004 1.95
12.55 -0.65000004 2.05
12.55 -0.65000004 2.1500001
12.55 -0.65000004 2.25
12.55 -0.65000004 2.3500001
12.55 -0.55000001 0.75
12.55 -0.55000001 0.85000002
12.55 -0.55000001 0.94999999
12.55 -0.55000001 1.0500001
12.55 -0.55000001 1.15
12.55 -0.55000001 1.85
12.55 -0.55000001 1.95
12.55 -0.55000001 2.05
12.55 -0.55000001 2.25
12.55 -0.55000001 2.3500001
12.55 -0.45000002 0.75
12.55 -0.45000002 0.85000002
12.55 -0.45000002 1.0500001
12.55 -0.45000002 1.15
12.55 -0.45000002 2.3500001
12.55 -0.45000002 2.45
12.55 -0.34999999 0.65000004
12.55 -0.34999999 0.75
12.55 -0.34999999 0.94999999
12.55 -0.34999999 1.0500001
12.55 -0.34999999 2.3500001
12.55 -0.34999999 2.45
12.55 -0.25 0.65000004
12.55 -0.25 0.75
12.55 -0.25 2.45
12.55 -0.25 2.55
12.55 -0.15000001 -1.95
12.55 -0.15000001 -1.85
12.55 -0.15000001 -1.75
12.55 -0.15000001 -1.65
12.55 -0.15000001 0.65000004
12.55 -0.15000001 0.75
12.55 -0.15000001 0.85000002
12.55 -0.15000001 2.3500001
12.55 -0.15000001 2.45
12.55 -0.15000001 2.55
12.55 -0.050000001 -1.85
12.55 -0.050000001 -1.75
12.55 -0.050000001 -1.65
12.55 -0.050000001 -1.5500001
12.55 -0.050000001 0.65000004
12.55 -0.050000001 0.75
12.55 -0.050000001 0.85000002
12.55 -0.050000001 1.35
12.55 -0.050000001 1.45
12.55 -0.050000001 1.5500001
12.55 -0.050000001 1.65
12.55 -0.050000001 1.75
12.55 -0.050000001 1.85
12.55 -0.050000001 1.95
12.55 -0.050000001 2.05
12.55 -0.050000001 2.1500001
12.55 -0.050000001 2.25
12.55 -0.050000001 2.3500001
12.55 -0.050000001 2.45
12.55 0.050000001 -1.85
12.55 0.050000001 -1.75
12.55 0.050000001 -1.65
12.55 0.050000001 -1.5500001
12.55 0.050000001 -1.45
12.55 0.050000001 -1.35
12.55 0.050000001 -1.25
12.55 0.050000001 -0.050000001
12.55 0.050000001 0.050000001
12.55 0.050000001 0.15000001
12.55 0.050000001 0.25
12.55 0.050000001 0.34999999
12.55 0.050000001 0.45000002
12.55 0.050000001 0.55000001
12.55 0.050000001 0.65000004
12.55 0.050000001 0.75
12.55 0.050000001 0.85000002
12.55 0.050000001 0.94999999
12.55 0.050000001 1.15
12.55 0.050000001 1.65
12.55 0.050000001 1.75
12.55 0.050000001 1.85
12.55 0.050000001 1.95
12.55 0.050000001 2.05
12.55 0.050000001 2.1500001
12.55 0.050000001 2.25
12.55 0.050000001 2.3500001
12.55 0.15000001 -1.75
12.55 0.15000001 -1.65
12.55 0.15000001 -1.5500001
12.55 0.15000001 -1.45
12.55 0.15000001 -1.35
12.55 0.15000001 -1.25
12.55 0.15000001 -1.15
12.55 0.15000001 -1.0500001
12.55 0.15000001 -0.15000001
12.55 0.15000001 -0.050000001
12.55 0.15000001 0.050000001
12.55 0.15000001 0.15000001
12.55 0.15000001 0.25
12.55 0.15000001 0.34999999
12.55 0.15000001 0.45000002
12.55 0.15000001 0.55000001
12.55 0.15000001 0.65000004
12.55 0.15000001 0.75
12.55 0.15000001 0.85000002
12.55 0.15000001 0.94999999
12.55 0.15000001 1.0500001
12.55 0.15000001 1.15
12.55 0.15000001 1.25
12.55 0.15000001 1.65
12.55 0.15000001 1.75
12.55 0.15000001 1.85
12.55 0.15000001 1.95
12.55 0.15000001 2.05
12.55 0.15000001 2.1500001
12.55 0.15000001 2.25
12.55 0.15000001 2.3500001
12.55 0.15000001 2.45
12.55 0.25 -1.5500001
12.55 0.25 -1.45
12.55 0.25 -1.35
12.55 0.25 -1.25
12.55 0.25 -1.15
12.55 0.25 -1.0500001
12.55 0.25 -0.94999999
12.55 0.25 -0.85000002
12.55 0.25 -0.75
12.55 0.25 -0.65000004
12.55 0.25 -0.55000001
12.55 0.25 -0.45000002
12.55 0.25 -0.34999999
12.55 0.25 -0.25
12.55 0.25 -0.15000001
12.55 0.25 -0.050000001
12.55 0.25 0.050000001
12.55 0.25 0.15000001
12.55 0.25 0.25
12.55 0.25 0.34999999
12.55 0.25 0.45000002
12.55 0.25 0.55000001
12.55 0.25 0.65000004
12.55 0.25 0.75
12.55 0.25 0.85000002
12.55 0.25 0.94999999
12.55 0.25 1.0500001
12.55 0.25 1.15
12.55 0.25 1.25
12.55 0.25 1.35
12.55 0.25 1.45
12.55 0.25 1.5500001
12.55 0.25 1.65
12.55 0.25 1.75
12.55 0.25 1.85
12.55 0.25 1.95
12.55 0.25 2.05
12.55 0.25 2.1500001
12.55 0.25 2.25
12.55 0.25 2.3500001
12.55 0.25 2.45
12.55 0.25 2.55
12.55 0.25 2.6500001
12.55 0.25 3.8500001
12.55 0.25 3.95
12.55 0.34999999 -1.5500001
12.55 0.34999999 -1.45
12.55 0.34999999 -1.35
12.55 0.34999999 -1.25
12.55 0.34999999 -1.15
12.55 0.34999999 -1.0500001
12.55 0.34999999 -0.94999999
12.55 0.34999999 -0.85000002
12.55 0.34999999 -0.75
12.55 0.34999999 -0.65000004
12.55 0.34999999 -0.55000001
12.55 0.34999999 -0.45000002
12.55 0.34999999 -0.34999999
12.55 0.34999999 -0.25
12.55 0.34999999 -0.15000001
12.55 0.34999999 -0.050000001
12.55 0.34999999 1.25
12.55 0.34999999 2.45
12.55 0.34999999 2.55
12.55 0.34999999 2.6500001
12.55 0.34999999 2.75
12.55 0.34999999 2.8500001
12.55 0.34999999 3.6500001
12.55 0.34999999 3.75
12.55 0.34999999 3.8500001
12.55 0.34999999 3.95
12.55 0.34999999 4.0500002
12.55 0.45000002 -1.45
12.55 0.45000002 -1.25
12.55 0.45000002 -1.15
12.55 0.45000002 -0.94999999
12.55 0.45000002 -0.85000002
12.55 0.45000002 2.55
12.55 0.45000002 2.6500001
12.55 0.45000002 2.75
12.55 0.45000002 2.8500001
12.55 0.45000002 2.95
12.55 0.45000002 3.6500001
12.55 0.45000002 3.75
12.55 0.45000002 3.8500001
12.55 0.45000002 3.95
12.55 0.45000002 4.0500002
12.55 0.55000001 2.6500001
12.55 0.55000001 2.75
12.55 0.55000001 2.8500001
12.55 0.55000001 2.95
12.55 0.55000001 3.05
12.55 0.55000001 3.1500001
12.55 0.55000001 3.6500001
12.55 0.55000001 3.75
12.55 0.55000001 3.8500001
12.55 0.55000001 3.95
12.55 0.65000004 -1.45
12.55 0.65000004 2.6500001
12.55 0.65000004 2.75
12.55 0.65000004 2.8500001
12.55 0.65000004 2.95
12.55 0.65000004 3.05
12.55 0.65000004 3.1500001
12.55 0.65000004 3.25
12.55 0.75 2.8500001
12.55 0.75 2.95
12.55 0.75 3.05
12.55 0.75 3.1500001
12.55 0.85000002 2.8500001
12.55 0.85000002 2.95
12.55 0.85000002 3.05
12.55 0.85000002 3.1500001
12.55 0.94999999 2.75
12.55 0.94999999 2.8500001
12.55 0.94999999 2.95
12.55 0.94999999 3.05
12.55 1.0500001 2.6500001
12.55 1.0500001 2.75
12.55 1.0500001 2.8500001
12.55 1.0500001 2.95
12.55 1.0500001 3.75
12.55 1.0500001 3.8500001
12.55 1.0500001 3.95
12.55 1.0500001 4.0500002
12.55 1.15 2.55
12.55 1.15 2.6500001
12.55 1.15 2.75
12.55 1.15 2.8500001
12.55 1.15 2.95
12.55 1.15 3.05
12.55 1.15 3.1500001
12.55 1.15 3.25
12.55 1.15 3.55
12.55 1.15 3.6500001
12.55 1.15 3.75
12.55 1.15 3.8500001
12.55 1.15 3.95
12.55 1.15 4.0500002
12.55 1.15 4.1500001
12.55 1.15 4.25
12.55 1.25 2.75
12.55 1.25 2.8500001
12.55 1.25 2.95
12.55 1.25 3.05
12.55 1.25 3.1500001
12.55 1.25 3.25
12.55 1.25 3.3500001
12.55 1.25 3.45
12.55 1.25 3.55
12.55 1.25 3.6500001
12.55 1.25 3.75
12.55 1.25 3.8500001
12.55 1.25 3.95
12.55 1.25 4.0500002
12.55 1.25 4.1500001
12.55 1.35 2.75
12.55 1.35 2.95
12.55 1.35 3.05
12.55 1.35 3.1500001
12.55 1.35 3.25
12.55 1.35 3.3500001
12.55 1.35 3.45
12.55 1.35 3.55
12.55 1.35 4.1500001
12.55 1.45 2.75
12.55 1.45 3.05
12.55 1.45 3.1500001
12.55 1.45 3.25
12.55 1.45 3.3500001
12.55 1.45 3.45
12.55 1.45 3.55
12.55 1.45 3.6500001
12.55 1.45 3.8500001
12.55 1.45 3.95
12.55 1.45 4.0500002
12.55 1.45 4.1500001
12.55 1.5500001 2.8500001
12.55 1.5500001 2.95
12.55 1.5500001 3.05
12.55 1.5500001 3.1500001
12.55 1.5500001 3.25
12.55 1.5500001 3.3500001
12.55 1.5500001 3.55
12.55 1.5500001 3.6500001
12.55 1.5500001 3.75
12.55 1.5500001 3.8500001
12.55 1.5500001 4.0500002
12.55 1.5500001 4.1500001
12.55 1.5500001 4.25
12.55 1.65 2.55
12.55 1.65 2.6500001
12.55 1.65 2.75
12.55 1.65 2.8500001
12.55 1.65 2.95
12.55 1.65 3.05
12.55 1.65 3.1500001
12.55 1.65 3.25
12.55 1.65 3.55
12.55 1.65 3.6500001
12.55 1.65 3.75
12.55 1.65 3.8500001
12.55 1.65 3.95
12.55 1.65 4.0500002
12.55 1.75 2.55
12.55 1.75 2.6500001
12.55 1.75 2.75
12.55 1.75 2.8500001
12.55 1.85 2.55
12.55 1.85 2.6500001
12.55 1.85 2.75
12.55 1.95 2.55
12.55 1.95 2.6500001
12.55 1.95 2.75
12.55 2.05 2.55
12.55 2.05 2.6500001
12.55 2.05 2.75
12.55 2.1500001 2.45
12.55 2.1500001 2.55
12.55 2.1500001 2.6500001
12.55 2.1500001 2.75
12.55 2.25 2.45
12.55 2.25 2.55
12.55 2.25 2.6500001
12.55 2.3500001 -0.050000001
12.55 2.3500001 0.050000001
12.55 2.3500001 0.15000001
12.55 2.3500001 0.25
12.55 2.3500001 0.34999999
12.55 2.3500001 0.45000002
12.55 2.3500001 0.55000001
12.55 2.3500001 0.65000004
12.55 2.3500001 0.75
12.55 2.3500001 0.85000002
12.55 2.3500001 0.94999999
12.55 2.3500001 1.0500001
12.55 2.3500001 1.15
12.55 2.3500001 1.25
12.55 2.3500001 1.35
12.55 2.3500001 1.45
12.55 2.3500001 1.5500001
12.55 2.3500001 1.65
12.55 2.3500001 1.75
12.55 2.3500001 1.85
12.55 2.3500001 1.95
12.55 2.3500001 2.05
12.55 2.3500001 2.1500001
12.55 2.3500001 2.25
12.55 2.3500001 2.3500001
12.55 2.3500001 2.45
12.55 2.3500001 2.55
12.55 2.45 -1.65
12.55 2.45 -1.5500001
12.55 2.45 -1.45
12.55 2.45 -1.35
12.55 2.45 -1.25
12.55 2.45 -1.15
12.55 2.45 -0.94999999
12.55 2.45 -0.85000002
12.55 2.45 -0.75
12.55 2.45 -0.65000004
12.55 2.45 -0.55000001
12.55 2.45 -0.45000002
12.55 2.45 -0.34999999
12.55 2.45 -0.050000001
12.55 2.45 0.050000001
12.55 2.45 0.15000001
12.55 2.45 0.25
12.55 2.45 0.34999999
12.55 2.45 0.45000002
12.55 2.45 0.55000001
12.55 2.45 0.65000004
12.55 2.45 0.75
12.55 2.45 0.85000002
12.55 2.45 0.94999999
12.55 2.45 1.0500001
12.55 2.45 1.15
12.55 2.45 1.25
12.55 2.45 1.35
12.55 2.45 1.45
12.55 2.45 1.5500001
12.55 2.45 1.65
12.55 2.45 1.75
12.55 2.45 1.85
12.55 2.45 1.95
12.55 2.45 2.05
12.55 2.45 2.1500001
12.55 2.45 2.25
12.55 2.45 2.3500001
12.55 2.55 -1.85
12.55 2.55 -1.75
12.55 2.55 -1.65
12.55 2.55 -1.5500001
12.55 2.55 -1.45
12.55 2.55 -1.35
12.55 2.55 -1.25
12.55 2.55 -1.15
12.55 2.55 -1.0500001
12.55 2.55 -0.94999999
12.55 2.55 -0.85000002
12.55 2.55 -0.75
12.55 2.55 -0.65000004
12.55 2.55 -0.55000001
12.55 2.55 -0.45000002
12.55 2.55 -0.34999999
12.55 2.55 -0.25
12.55 2.55 -0.15000001
12.55 2.55 -0.050000001
12.55 2.55 0.050000001
12.55 2.55 0.15000001
12.55 2.55 0.25
12.55 2.55 0.34999999
12.55 2.55 0.45000002
12.55 2.55 0.55000001
12.55 2.55 0.65000004
12.55 2.55 0.75
12.55 2.55 0.85000002
12.55 2.55 0.94999999
12.55 2.55 1.0500001
12.55 2.55 1.15
12.55 2.55 1.25
12.55 2.55 1.35
12.55 2.55 1.45
12.55 2.55 1.5500001
12.55 2.55 1.65
12.55 2.55 1.75
12.55 2.55 1.85
12.55 2.55 1.95
12.55 2.6500001 -1.15
12.55 2.6500001 -1.0500001
12.55 2.6500001 -0.45000002
12.55 2.6500001 -0.34999999
12.55 2.6500001 -0.25
12.55 2.6500001 -0.15000001
12.55 2.6500001 -0.050000001
12.55 2.6500001 0.050000001
12.55 2.6500001 0.15000001
12.55 2.6500001 0.25
12.55 2.6500001 0.34999999
12.55 2.6500001 0.45000002
12.55 2.6500001 0.55000001
12.55 2.6500001 0.65000004
12.55 2.6500001 0.75
12.55 2.6500001 0.85000002
12.55 2.6500001 0.94999999
12.55 2.6500001 1.0500001
12.55 2.6500001 1.15
12.55 2.6500001 1.25
12.55 2.6500001 1.35
12.55 2.6500001 1.45
12.55 2.6500001 1.5500001
12.55 2.6500001 1.65
12.55 2.6500001 1.75
12.55 2.6500001 1.85
12.55 2.6500001 1.95
12.55 2.75 0.25
12.55 2.75 0.34999999
12.55 2.75 0.55000001
12.55 2.75 0.65000004
12.55 2.75 0.75
12.55 2.8500001 0.34999999
12.55 2.8500001 0.55000001
12.55 3.95 0.85000002
12.55 3.95 0.94999999
12.55 3.95 1.0500001
12.55 3.95 1.15
12.55 3.95 1.25
12.55 3.95 1.35
12.55 3.95 1.45
12.55 4.0500002 0.75
12.55 4.0500002 0.85000002
12.55 4.0500002 0.94999999
12.55 4.0500002 1.25
12.55 4.0500002 1.35
12.55 4.0500002 1.45
12.55 4.1500001 0.55000001
12.55 4.1500001 0.65000004
12.55 4.1500001 0.75
12.55 4.1500001 0.85000002
12.55 4.1500001 1.45
12.55 4.1500001 1.5500001
12.55 4.25 0.45000002
12.55 4.25 0.55000001
12.55 4.25 0.65000004
12.55 4.25 0.75
12.55 4.25 0.85000002
12.55 4.25 1.45
12.55 4.25 1.5500001
12.55 4.3499999 0.34999999
12.55 4.3499999 0.45000002
12.55 4.3499999 0.55000001
12.55 4.3499999 0.65000004
12.55 4.3499999 0.75
12.55 4.3499999 0.85000002
12.55 4.3499999 1.5500001
12.55 4.3499999 1.65
12.55 4.3499999 1.75
12.55 4.3499999 1.85
12.55 4.3499999 1.95
12.55 4.3499999 2.05
12.55 4.3499999 2.1500001
12.55 4.3499999 2.25
12.55 4.4500003 0.34999999
12.55 4.4500003 0.45000002
12.55 4.4500003 0.55000001
12.55 4.4500003 0.65000004
12.55 4.4500003 0.75
12.55 4.4500003 0.85000002
12.55 4.4500003 1.45
12.55 4.4500003 1.5500001
12.55 4.4500003 1.65
12.55 4.4500003 1.75
12.55 4.4500003 1.85
12.55 4.4500003 1.95
12.55 4.4500003 2.05
12.55 4.4500003 2.1500001
12.55 4.4500003 2.25
12.55 4.4500003 2.3500001
12.55 4.4500003 2.45
12.55 4.5500002 0.34999999
12.55 4.5500002 0.94999999
12.55 4.5500002 1.45
12.55 4.5500002 1.5500001
12.55 4.5500002 1.65
12.55 4.5500002 1.75
12.55 4.5500002 1.85
12.55 4.5500002 1.95
12.55 4.5500002 2.05
12.55 4.5500002 2.1500001
12.55 4.5500002 2.25
12.55 4.5500002 2.3500001
12.55 4.5500002 2.45
12.55 4.5500002 2.55
12.55 4.6500001 0.34999999
12.55 4.6500001 1.65
12.55 4.6500001 1.75
12.55 4.6500001 1.85
12.55 4.6500001 1.95
12.55 4.6500001 2.05
12.55 4.6500001 2.1500001
12.55 4.6500001 2.25
12.55 4.6500001 2.55
12.55 4.6500001 2.6500001
12.55 4.75 0.25
12.55 4.75 0.34999999
12.55 4.75 1.65
12.55 4.75 1.75
12.55 4.75 1.85
12.55 4.75 1.95
12.55 4.75 2.25
12.55 4.75 2.45
12.55 4.75 2.6500001
12.55 4.8499999 1.65
12.55 4.8499999 1.75
12.55 4.8499999 1.85
12.55 4.8499999 1.95
12.55 4.8499999 2.05
12.55 4.8499999 2.1500001
12.55 4.8499999 2.25
12.55 4.8499999 2.45
12.55 4.8499999 2.6500001
12.55 4.8499999 2.75
12.55 4.9500003 1.75
12.55 4.9500003 1.85
12.55 4.9500003 1.95
12.55 4.9500003 2.05
12.55 4.9500003 2.1500001
12.55 4.9500003 2.25
12.55 4.9500003 2.45
12.55 4.9500003 2.55
12.55 4.9500003 2.6500001
12.55 4.9500003 2.75
12.55 5.0500002 1.65
12.55 5.0500002 1.75
12.55 5.0500002 1.85
12.55 5.0500002 1.95
12.55 5.0500002 2.05
12.55 5.0500002 2.1500001
12.55 5.0500002 2.25
12.55 5.0500002 2.3500001
12.55 5.0500002 2.45
12.55 5.0500002 2.55
12.55 5.0500002 2.6500001
12.55 5.0500002 2.75
12.55 5.1500001 1.65
12.55 5.1500001 1.75
12.55 5.1500001 1.85
12.55 5.1500001 1.95
12.55 5.1500001 2.05
12.55 5.1500001 2.1500001
12.55 5.1500001 2.25
12.55 5.1500001 2.3500001
12.55 5.1500001 2.45
12.55 5.1500001 2.55
12.55 5.1500001 2.6500001
12.55 5.1500001 2.75
12.55 5.1500001 2.8500001
12.55 5.25 1.35
12.55 5.25 1.45
12.55 5.25 1.5500001
12.55 5.25 1.65
12.55 5.25 1.75
12.55 5.25 1.85
12.55 5.25 1.95
12.55 5.25 2.05
12.55 5.25 2.1500001
12.55 5.25 2.25
12.55 5.25 2.45
12.55 5.25 2.55
12.55 5.25 2.6500001
12.55 5.25 2.75
12.55 5.25 2.8500001
12.55 5.25 2.95
12.55 5.3499999 1.25
12.55 5.3499999 1.35
12.55 5.3499999 1.45
12.55 5.3499999 1.5500001
12.55 5.3499999 1.65
12.55 5.3499999 1.75
12.55 5.3499999 1.85
12.55 5.3499999 1.95
12.55 5.3499999 2.05
12.55 5.3499999 2.1500001
12.55 5.3499999 2.25
12.55 5.3499999 2.3500001
12.55 5.3499999 2.45
12.55 5.3499999 2.55
12.55 5.3499999 2.6500001
12.55 5.3499999 2.75
12.55 5.3499999 2.8500001
12.55 5.3499999 2.95
12.55 5.3499999 3.05
12.55 5.4500003 0.75
12.55 5.4500003 1.25
12.55 5.4500003 1.35
12.55 5.4500003 1.5500001
12.55 5.4500003 1.65
12.55 5.4500003 1.75
12.55 5.4500003 1.85
12.55 5.4500003 1.95
12.55 5.4500003 2.3500001
12.55 5.4500003 2.45
12.55 5.4500003 2.55
12.55 5.4500003 2.6500001
12.55 5.4500003 2.75
12.55 5.4500003 2.8500001
12.55 5.4500003 2.95
12.55 5.5500002 0.75
12.55 5.5500002 1.35
12.55 5.5500002 1.45
12.55 5.5500002 1.5500001
12.55 5.5500002 1.65
12.55 5.5500002 1.75
12.55 5.5500002 2.45
12.55 5.5500002 2.55
12.55 5.5500002 2.95
12.55 5.5500002 3.05
12.55 5.5500002 3.1500001
12.55 5.6500001 1.15
12.55 5.6500001 1.25
12.55 5.6500001 1.35
12.55 5.6500001 1.45
12.55 5.6500001 1.5500001
12.55 5.6500001 1.65
12.55 5.6500001 1.75
12.55 5.6500001 2.45
12.55 5.6500001 2.55
12.55 5.6500001 2.95
12.55 5.6500001 3.05
12.55 5.6500001 3.1500001
12.55 5.75 -0.050000001
12.55 5.75 1.0500001
12.55 5.75 1.15
12.55 5.75 1.25
12.55 5.75 1.35
12.55 5.75 2.55
12.55 5.75 2.6500001
12.55 5.75 2.75
12.55 5.75 2.8500001
12.55 5.75 2.95
12.55 5.75 3.1500001
12.55 5.8499999 1.0500001
12.55 5.8499999 1.15
12.55 5.8499999 1.25
12.55 5.8499999 1.35
12.55 5.8499999 2.55
12.55 5.8499999 2.6500001
12.55 5.8499999 2.75
12.55 5.8499999 2.8500001
12.55 5.8499999 2.95
12.55 5.8499999 3.05
12.55 5.8499999 3.1500001
12.55 5.9500003 1.0500001
12.55 5.9500003 1.15
12.55 5.9500003 2.55
12.55 5.9500003 2.6500001
12.55 5.9500003 2.75
12.55 5.9500003 2.8500001
12.55 5.9500003 2.95
12.55 5.9500003 3.05
12.55 6.0500002 2.55
12.55 6.0500002 2.6500001
12.55 6.0500002 2.75
12.55 6.0500002 2.8500001
12.55 6.0500002 3.05
12.55 6.0500002 3.1500001
12.55 6.0500002 3.45
12.55 6.0500002 3.55
12.55 6.1500001 0.45000002
12.55 6.1500001 1.85
12.55 6.1500001 2.55
12.55 6.1500001 2.6500001
12.55 6.1500001 2.75
12.55 6.1500001 2.8500001
12.55 6.1500001 3.1500001
12.55 6.1500001 3.3500001
12.55 6.1500001 3.45
12.55 6.1500001 3.55
12.55 6.1500001 3.6500001
12.55 6.1500001 3.75
12.55 6.25 1.0500001
12.55 6.25 1.85
12.55 6.25 2.55
12.55 6.25 2.6500001
12.55 6.25 2.75
12.55 6.25 2.8500001
12.55 6.25 2.95
12.55 6.25 3.05
12.55 6.25 3.1500001
12.55 6.25 3.25
12.55 6.25 3.3500001
12.55 6.25 3.45
12.55 6.25 3.55
12.55 6.25 3.6500001
12.55 6.25 3.75
12.55 6.3499999 -0.85000002
12.55 6.3499999 2.45
12.55 6.3499999 2.55
12.55 6.3499999 2.6500001
12.55 6.3499999 2.75
12.55 6.3499999 2.8500001
12.55 6.3499999 2.95
12.55 6.3499999 3.1500001
12.55 6.3499999 3.25
12.55 6.3499999 3.3500001
12.55 6.3499999 3.45
12.55 6.3499999 3.75
12.55 6.3499999 3.8500001
12.55 6.3499999 4.0500002
12.55 6.4500003 -0.85000002
12.55 6.4500003 2.45
12.55 6.4500003 2.55
12.55 6.4500003 2.6500001
12.55 6.4500003 2.75
12.55 6.4500003 3.25
12.55 6.4500003 3.3500001
12.55 6.4500003 3.45
12.55 6.4500003 3.75
12.55 6.4500003 3.8500001
12.55 6.4500003 3.95
12.55 6.4500003 4.0500002
12.55 6.4500003 4.1500001
12.55 6.5500002 -0.85000002
12.55 6.5500002 0.15000001
12.55 6.5500002 2.45
12.55 6.5500002 2.55
12.55 6.5500002 2.6500001
12.55 6.5500002 3.3500001
12.55 6.5500002 3.45
12.55 6.5500002 3.55
12.55 6.5500002 3.6500001
12.55 6.5500002 3.75
12.55 6.5500002 3.8500001
12.55 6.5500002 3.95
12.55 6.5500002 4.0500002
12.55 6.6500001 -0.85000002
12.55 6.6500001 2.45
12.55 6.6500001 2.55
12.55 6.6500001 2.6500001
12.55 6.6500001 2.75
12.55 6.6500001 2.8500001
12.55 6.6500001 2.95
12.55 6.6500001 3.05
12.55 6.6500001 3.45
12.55 6.6500001 3.55
12.55 6.6500001 3.6500001
12.55 6.6500001 3.75
12.55 6.6500001 3.8500001
12.55 6.6500001 3.95
12.55 6.6500001 4.0500002
12.55 6.6500001 4.1500001
12.55 6.75 2.55
12.55 6.75 2.6500001
12.55 6.75 2.8500001
12.55 6.75 2.95
12.55 6.75 3.05
12.55 6.75 3.1500001
12.55 6.75 3.25
12.55 6.75 3.55
12.55 6.75 3.6500001
12.55 6.75 3.75
12.55 6.75 3.8500001
12.55 6.75 3.95
12.55 6.75 4.0500002
12.55 6.8499999 2.6500001
12.55 6.8499999 3.1500001
12.55 6.8499999 3.25
12.55 6.8499999 3.3500001
12.55 6.8499999 3.45
12.55 6.8499999 3.55
12.55 6.8499999 3.6500001
12.55 6.8499999 3.75
12.55 6.8499999 3.8500001
12.55 6.8499999 3.95
12.55 6.8499999 4.0500002
12.55 6.8499999 4.1500001
12.55 6.9500003 2.55
12.55 6.9500003 3.1500001
12.55 6.9500003 3.25
12.55 6.9500003 3.3500001
12.55 6.9500003 3.45
12.55 6.9500003 3.55
12.55 6.9500003 3.6500001
12.55 6.9500003 3.75
12.55 6.9500003 3.8500001
12.55 6.9500003 3.95
12.55 6.9500003 4.0500002
12.55 6.9500003 4.1500001
12.55 6.9500003 4.25
12.55 7.0500002 3.25
12.55 7.0500002 3.3500001
12.55 7.0500002 3.45
12.55 7.0500002 3.6500001
12.55 7.0500002 4.1500001
12.650001 -3.3500001 1.5500001
12.650001 -3.3500001 2.05
12.650001 -3.25 1.45
12.650001 -1.15 1.95
12.650001 -1.15 2.05
12.650001 -1.15 2.1500001
12.650001 -1.15 2.25
12.650001 -1.0500001 1.25
12.650001 -1.0500001 1.35
12.650001 -1.0500001 1.45
12.650001 -1.0500001 1.5500001
12.650001 -1.0500001 1.65
12.650001 -1.0500001 1.75
12.650001 -1.0500001 1.85
12.650001 -1.0500001 1.95
12.650001 -1.0500001 2.05
12.650001 -1.0500001 2.1500001
12.650001 -0.94999999 0.94999999
12.650001 -0.94999999 1.0500001
12.650001 -0.94999999 1.25
12.650001 -0.85000002 0.85000002
12.650001 -0.85000002 0.94999999
12.650001 -0.85000002 1.0500001
12.650001 -0.85000002 1.15
12.650001 -0.85000002 1.25
12.650001 -0.85000002 2.25
12.650001 -0.75 0.85000002
12.650001 -0.75 0.94999999
12.650001 -0.75 1.0500001
12.650001 -0.75 1.15
12.650001 -0.75 1.25
12.650001 -0.75 1.35
12.650001 -0.75 1.5500001
12.650001 -0.75 1.65
12.650001 -0.75 1.75
12.650001 -0.75 1.85
12.650001 -0.75 1.95
12.650001 -0.75 2.05
12.650001 -0.75 2.1500001
12.650001 -0.75 2.25
12.650001 -0.75 2.3500001
12.650001 -0.75 2.45
12.650001 -0.65000004 0.75
12.650001 -0.65000004 0.85000002
12.650001 -0.65000004 0.94999999
12.650001 -0.65000004 1.0500001
12.650001 -0.65000004 1.15
12.650001 -0.65000004 1.25
12.650001 -0.65000004 1.75
12.650001 -0.65000004 1.85
12.650001 -0.65000004 1.95
12.650001 -0.65000004 2.05
12.650001 -0.65000004 2.1500001
12.650001 -0.65000004 2.25
12.650001 -0.65000004 2.3500001
12.650001 -0.65000004 2.45
12.650001 -0.55000001 0.75
12.650001 -0.55000001 0.85000002
12.650001 -0.55000001 0.94999999
12.650001 -0.55000001 1.0500001
12.650001 -0.55000001 1.15
12.650001 -0.55000001 1.95
12.650001 -0.55000001 2.05
12.650001 -0.55000001 2.25
12.650001 -0.55000001 2.3500001
12.650001 -0.55000001 2.45
12.650001 -0.45000002 0.65000004
12.650001 -0.45000002 0.75
12.650001 -0.45000002 0.85000002
12.650001 -0.45000002 1.0500001
12.650001 -0.45000002 1.15
12.650001 -0.45000002 2.05
12.650001 -0.45000002 2.3500001
12.650001 -0.45000002 2.45
12.650001 -0.45000002 2.55
12.650001 -0.34999999 0.65000004
12.650001 -0.34999999 0.75
12.650001 -0.34999999 0.94999999
12.650001 -0.34999999 1.0500001
12.650001 -0.34999999 1.15
12.650001 -0.34999999 1.25
12.650001 -0.34999999 2.45
12.650001 -0.25 0.65000004
12.650001 -0.25 2.45
12.650001 -0.25 2.55
12.650001 -0.15000001 -1.95
12.650001 -0.15000001 -1.85
12.650001 -0.15000001 -1.75
12.650001 -0.15000001 -1.65
12.650001 -0.15000001 0.65000004
12.650001 -0.15000001 0.75
12.650001 -0.15000001 0.85000002
12.650001 -0.15000001 0.94999999
12.650001 -0.15000001 1.35
12.650001 -0.15000001 1.45
12.650001 -0.15000001 1.5500001
12.650001 -0.15000001 1.65
12.650001 -0.15000001 1.75
12.650001 -0.15000001 1.85
12.650001 -0.15000001 1.95
12.650001 -0.15000001 2.05
12.650001 -0.15000001 2.1500001
12.650001 -0.15000001 2.25
12.650001 -0.15000001 2.3500001
12.650001 -0.15000001 2.45
12.650001 -0.15000001 2.55
12.650001 -0.050000001 -1.85
12.650001 -0.050000001 -1.75
12.650001 -0.050000001 -1.65
12.650001 -0.050000001 -1.5500001
12.650001 -0.050000001 0.65000004
12.650001 -0.050000001 0.75
12.650001 -0.050000001 0.85000002
12.650001 -0.050000001 0.94999999
12.650001 -0.050000001 1.45
12.650001 -0.050000001 1.5500001
12.650001 -0.050000001 1.65
12.650001 -0.050000001 1.75
12.650001 -0.050000001 1.85
12.650001 -0.050000001 1.95
12.650001 -0.050000001 2.05
12.650001 -0.050000001 2.1500001
12.650001 -0.050000001 2.25
12.650001 -0.050000001 2.3500001
12.650001 -0.050000001 2.45
12.650001 0.050000001 -1.85
12.650001 0.050000001 -1.75
12.650001 0.050000001 -1.65
12.650001 0.050000001 -1.5500001
12.650001 0.050000001 -1.45
12.650001 0.050000001 -1.35
12.650001 0.050000001 -1.25
12.650001 0.050000001 -0.050000001
12.650001 0.050000001 0.050000001
12.650001 0.050000001 0.15000001
12.650001 0.050000001 0.25
12.650001 0.050000001 0.34999999
12.650001 0.050000001 0.45000002
12.650001 0.050000001 0.55000001
12.650001 0.050000001 0.65000004
12.650001 0.050000001 0.75
12.650001 0.050000001 0.85000002
12.650001 0.050000001 0.94999999
12.650001 0.050000001 1.0500001
12.650001 0.050000001 1.15
12.650001 0.050000001 1.25
12.650001 0.050000001 1.5500001
12.650001 0.050000001 1.65
12.650001 0.050000001 1.75
12.650001 0.050000001 1.85
12.650001 0.050000001 1.95
12.650001 0.050000001 2.1500001
12.650001 0.15000001 -1.65
12.650001 0.15000001 -1.5500001
12.650001 0.15000001 -1.45
12.650001 0.15000001 -1.35
12.650001 0.15000001 -1.25
12.650001 0.15000001 -1.15
12.650001 0.15000001 -1.0500001
12.650001 0.15000001 -0.94999999
12.650001 0.15000001 -0.15000001
12.650001 0.15000001 -0.050000001
12.650001 0.15000001 0.050000001
12.650001 0.15000001 0.15000001
12.650001 0.15000001 0.25
12.650001 0.15000001 0.34999999
12.650001 0.15000001 0.45000002
12.650001 0.15000001 0.55000001
12.650001 0.15000001 0.65000004
12.650001 0.15000001 0.75
12.650001 0.15000001 0.85000002
12.650001 0.15000001 0.94999999
12.650001 0.15000001 1.0500001
12.650001 0.15000001 1.15
12.650001 0.15000001 1.25
12.650001 0.15000001 1.35
12.650001 0.15000001 1.45
12.650001 0.15000001 1.5500001
12.650001 0.15000001 1.65
12.650001 0.15000001 1.75
12.650001 0.15000001 1.85
12.650001 0.15000001 1.95
12.650001 0.15000001 2.05
12.650001 0.15000001 2.1500001
12.650001 0.25 -1.65
12.650001 0.25 -1.5500001
12.650001 0.25 -1.45
12.650001 0.25 -1.25
12.650001 0.25 -1.15
12.650001 0.25 -1.0500001
12.650001 0.25 -0.94999999
12.650001 0.25 -0.85000002
12.650001 0.25 -0.75
12.650001 0.25 -0.65000004
12.650001 0.25 -0.55000001
12.650001 0.25 -0.45000002
12.650001 0.25 -0.34999999
12.650001 0.25 -0.25
12.650001 0.25 -0.15000001
12.650001 0.25 -0.050000001
12.650001 0.25 0.050000001
12.650001 0.25 0.15000001
12.650001 0.25 0.25
12.650001 0.25 0.34999999
12.650001 0.25 0.45000002
12.650001 0.25 0.55000001
12.650001 0.25 0.65000004
12.650001 0.25 0.75
12.650001 0.25 0.85000002
12.650001 0.25 0.94999999
12.650001 0.25 1.0500001
12.650001 0.25 1.15
12.650001 0.25 1.25
12.650001 0.25 1.35
12.650001 0.25 1.45
12.650001 0.25 1.5500001
12.650001 0.25 1.65
12.650001 0.25 1.75
12.650001 0.25 1.85
12.650001 0.25 1.95
12.650001 0.25 2.05
12.650001 0.25 2.1500001
12.650001 0.25 2.25
12.650001 0.25 2.3500001
12.650001 0.25 2.45
12.650001 0.25 2.55
12.650001 0.25 2.6500001
12.650001 0.25 3.95
12.650001 0.25 4.0500002
12.650001 0.34999999 -1.65
12.650001 0.34999999 -1.5500001
12.650001 0.34999999 -1.45
12.650001 0.34999999 -1.35
12.650001 0.34999999 -1.25
12.650001 0.34999999 -1.15
12.650001 0.34999999 -1.0500001
12.650001 0.34999999 -0.94999999
12.650001 0.34999999 -0.85000002
12.650001 0.34999999 -0.75
12.650001 0.34999999 -0.65000004
12.650001 0.34999999 -0.55000001
12.650001 0.34999999 -0.45000002
12.650001 0.34999999 -0.34999999
12.650001 0.34999999 -0.25
12.650001 0.34999999 -0.15000001
12.650001 0.34999999 -0.050000001
12.650001 0.34999999 1.35
12.650001 0.34999999 1.45
12.650001 0.34999999 2.3500001
12.650001 0.34999999 2.45
12.650001 0.34999999 2.55
12.650001 0.34999999 2.6500001
12.650001 0.34999999 2.75
12.650001 0.34999999 2.8500001
12.650001 0.34999999 3.75
12.650001 0.45000002 -1.65
12.650001 0.45000002 -1.5500001
12.650001 0.45000002 -1.45
12.650001 0.45000002 -1.35
12.650001 0.45000002 -1.25
12.650001 0.45000002 -1.15
12.650001 0.45000002 -1.0500001
12.650001 0.45000002 -0.94999999
12.650001 0.45000002 -0.85000002
12.650001 0.45000002 2.55
12.650001 0.45000002 2.6500001
12.650001 0.45000002 2.75
12.650001 0.45000002 2.8500001
12.650001 0.45000002 2.95
12.650001 0.45000002 3.75
12.650001 0.55000001 -1.85
12.650001 0.55000001 -1.35
12.650001 0.55000001 -1.25
12.650001 0.55000001 2.6500001
12.650001 0.55000001 2.75
12.650001 0.55000001 2.8500001
12.650001 0.55000001 2.95
12.650001 0.55000001 3.05
12.650001 0.55000001 3.1500001
12.650001 0.65000004 -1.85
12.650001 0.65000004 -1.65
12.650001 0.65000004 -1.5500001
12.650001 0.65000004 -1.45
12.650001 0.65000004 -1.35
12.650001 0.65000004 2.6500001
12.650001 0.65000004 2.75
12.650001 0.65000004 2.8500001
12.650001 0.65000004 2.95
12.650001 0.65000004 3.05
12.650001 0.65000004 3.1500001
12.650001 0.75 -1.5500001
12.650001 0.75 2.75
12.650001 0.75 2.8500001
12.650001 0.75 2.95
12.650001 0.75 3.05
12.650001 0.75 3.1500001
12.650001 0.85000002 2.8500001
12.650001 0.85000002 2.95
12.650001 0.85000002 3.05
12.650001 0.85000002 3.1500001
12.650001 0.94999999 2.75
12.650001 0.94999999 2.8500001
12.650001 0.94999999 2.95
12.650001 1.0500001 2.6500001
12.650001 1.0500001 2.75
12.650001 1.0500001 2.8500001
12.650001 1.0500001 2.95
12.650001 1.0500001 3.8500001
12.650001 1.0500001 3.95
12.650001 1.0500001 4.0500002
12.650001 1.0500001 4.1500001
12.650001 1.15 2.55
12.650001 1.15 2.6500001
12.650001 1.15 2.75
12.650001 1.15 2.8500001
12.650001 1.15 2.95
12.650001 1.15 3.05
12.650001 1.15 3.1500001
12.650001 1.15 3.25
12.650001 1.15 3.6500001
12.650001 1.15 3.75
12.650001 1.15 3.8500001
12.650001 1.15 3.95
12.650001 1.15 4.0500002
12.650001 1.15 4.1500001
12.650001 1.15 4.25
12.650001 1.15 4.3499999
12.650001 1.25 2.6500001
12.650001 1.25 2.75
12.650001 1.25 2.8500001
12.650001 1.25 2.95
12.650001 1.25 3.05
12.650001 1.25 3.1500001
12.650001 1.25 3.25
12.650001 1.25 3.3500001
12.650001 1.25 3.45
12.650001 1.25 3.55
12.650001 1.25 3.6500001
12.650001 1.25 3.75
12.650001 1.25 3.8500001
12.650001 1.25 3.95
12.650001 1.25 4.0500002
12.650001 1.25 4.1500001
12.650001 1.35 2.6500001
12.650001 1.35 2.75
12.650001 1.35 2.95
12.650001 1.35 3.05
12.650001 1.35 3.1500001
12.650001 1.35 3.25
12.650001 1.35 3.3500001
12.650001 1.35 3.55
12.650001 1.35 3.6500001
12.650001 1.35 3.75
12.650001 1.35 3.95
12.650001 1.35 4.1500001
12.650001 1.45 2.75
12.650001 1.45 2.95
12.650001 1.45 3.05
12.650001 1.45 3.1500001
12.650001 1.45 3.25
12.650001 1.45 3.3500001
12.650001 1.45 3.45
12.650001 1.45 3.55
12.650001 1.45 3.6500001
12.650001 1.45 3.75
12.650001 1.45 3.8500001
12.650001 1.45 3.95
12.650001 1.45 4.0500002
12.650001 1.45 4.25
12.650001 1.5500001 2.75
12.650001 1.5500001 2.8500001
12.650001 1.5500001 2.95
12.650001 1.5500001 3.05
12.650001 1.5500001 3.1500001
12.650001 1.5500001 3.25
12.650001 1.5500001 3.3500001
12.650001 1.5500001 3.6500001
12.650001 1.5500001 3.75
12.650001 1.5500001 3.8500001
12.650001 1.5500001 4.0500002
12.650001 1.5500001 4.1500001
12.650001 1.5500001 4.25
12.650001 1.65 2.55
12.650001 1.65 2.6500001
12.650001 1.65 2.75
12.650001 1.65 2.8500001
12.650001 1.65 2.95
12.650001 1.65 3.05
12.650001 1.65 3.1500001
12.650001 1.65 3.6500001
12.650001 1.65 3.75
12.650001 1.65 3.8500001
12.650001 1.65 3.95
12.650001 1.65 4.0500002
12.650001 1.65 4.1500001
12.650001 1.75 2.55
12.650001 1.75 2.6500001
12.650001 1.75 2.75
12.650001 1.85 2.45
12.650001 1.85 2.55
12.650001 1.85 2.6500001
12.650001 1.85 2.75
12.650001 1.95 2.45
12.650001 1.95 2.55
12.650001 1.95 2.6500001
12.650001 1.95 2.75
12.650001 2.05 2.45
12.650001 2.05 2.55
12.650001 2.05 2.6500001
12.650001 2.05 2.75
12.650001 2.1500001 2.45
12.650001 2.1500001 2.55
12.650001 2.1500001 2.6500001
12.650001 2.1500001 2.75
12.650001 2.25 2.3500001
12.650001 2.25 2.45
12.650001 2.25 2.55
12.650001 2.25 2.6500001
12.650001 2.3500001 -1.45
12.650001 2.3500001 -1.35
12.650001 2.3500001 -0.15000001
12.650001 2.3500001 -0.050000001
12.650001 2.3500001 0.050000001
12.650001 2.3500001 0.15000001
12.650001 2.3500001 0.25
12.650001 2.3500001 0.34999999
12.650001 2.3500001 0.45000002
12.650001 2.3500001 0.55000001
12.650001 2.3500001 0.65000004
12.650001 2.3500001 0.75
12.650001 2.3500001 0.85000002
12.650001 2.3500001 0.94999999
12.650001 2.3500001 1.0500001
12.650001 2.3500001 1.15
12.650001 2.3500001 1.25
12.650001 2.3500001 1.35
12.650001 2.3500001 1.45
12.650001 2.3500001 1.5500001
12.650001 2.3500001 1.65
12.650001 2.3500001 1.75
12.650001 2.3500001 1.85
12.650001 2.3500001 1.95
12.650001 2.3500001 2.05
12.650001 2.3500001 2.25
12.650001 2.3500001 2.3500001
12.650001 2.3500001 2.45
12.650001 2.3500001 2.55
12.650001 2.45 -1.75
12.650001 2.45 -1.65
12.650001 2.45 -1.5500001
12.650001 2.45 -1.45
12.650001 2.45 -1.35
12.650001 2.45 -1.25
12.650001 2.45 -0.94999999
12.650001 2.45 -0.85000002
12.650001 2.45 -0.75
12.650001 2.45 -0.65000004
12.650001 2.45 -0.55000001
12.650001 2.45 -0.45000002
12.650001 2.45 -0.34999999
12.650001 2.45 -0.25
12.650001 2.45 -0.15000001
12.650001 2.45 -0.050000001
12.650001 2.45 0.050000001
12.650001 2.45 0.15000001
12.650001 2.45 0.25
12.650001 2.45 0.34999999
12.650001 2.45 0.45000002
12.650001 2.45 0.55000001
12.650001 2.45 0.65000004
12.650001 2.45 0.75
12.650001 2.45 0.94999999
12.650001 2.45 1.0500001
12.650001 2.45 1.15
12.650001 2.45 1.35
12.650001 2.45 1.45
12.650001 2.45 1.5500001
12.650001 2.45 1.65
12.650001 2.45 1.75
12.650001 2.45 1.85
12.650001 2.45 2.05
12.650001 2.45 2.1500001
12.650001 2.45 2.25
12.650001 2.45 2.3500001
12.650001 2.55 -1.85
12.650001 2.55 -1.75
12.650001 2.55 -1.65
