# .PCD v0.7 - Point Cloud Data file format
VERSION 0.7
FIELDS x y z
SIZE 4 4 4
TYPE F F F
COUNT 1 1 1
WIDTH 2109
HEIGHT 1
VIEWPOINT 0 0 0 1 0 0 0
POINTS 2109
DATA ascii
24.550001 2.55 1.75
24.550001 2.55 1.85
24.550001 2.55 2.1500001
24.550001 2.55 2.25
24.550001 3.6500001 1.25
24.550001 3.75 2.45
24.550001 3.75 2.6500001
24.550001 3.75 2.75
24.550001 3.75 2.8500001
24.550001 3.75 2.95
24.550001 3.75 3.05
24.550001 3.75 3.1500001
24.550001 3.8500001 2.8500001
24.550001 3.8500001 2.95
24.550001 3.8500001 3.05
24.550001 3.8500001 3.1500001
24.550001 3.8500001 3.25
24.550001 3.95 3.1500001
24.550001 3.95 3.25
24.550001 3.95 3.3500001
24.550001 4.0500002 3.25
24.550001 4.0500002 3.3500001
24.550001 4.0500002 3.45
24.550001 4.1500001 2.3500001
24.550001 4.1500001 3.25
24.550001 4.1500001 3.3500001
24.550001 4.1500001 3.45
24.550001 4.25 3.25
24.550001 4.25 3.3500001
24.550001 4.25 3.45
24.550001 4.3499999 3.3500001
24.550001 4.4500003 3.3500001
24.550001 4.4500003 3.45
24.550001 4.5500002 3.25
24.550001 4.5500002 3.3500001
24.550001 4.6500001 3.25
24.550001 4.6500001 3.3500001
24.550001 4.75 3.3500001
24.550001 4.8499999 3.3500001
24.65 -3.6500001 3.8500001
24.65 -3.6500001 3.95
24.65 -3.55 3.8500001
24.65 -3.55 3.95
24.65 -3.45 3.8500001
24.65 -3.45 3.95
24.65 -3.3500001 3.8500001
24.65 -3.3500001 3.95
24.65 -3.25 0.94999999
24.65 -3.1500001 0.94999999
24.65 -3.1500001 3.8500001
24.65 -3.05 0.94999999
24.65 -3.05 3.8500001
24.65 -2.95 0.94999999
24.65 -2.95 3.8500001
24.65 -2.8500001 0.94999999
24.65 -2.8500001 3.8500001
24.65 -2.75 3.25
24.65 -2.6500001 0.94999999
24.65 -2.6500001 1.0500001
24.65 -2.6500001 3.3500001
24.65 -2.6500001 3.75
24.65 -2.55 1.0500001
24.65 -2.55 3.3500001
24.65 -2.55 3.75
24.65 -2.45 1.0500001
24.65 -2.45 3.45
24.65 -2.3500001 0.85000002
24.65 -2.3500001 1.0500001
24.65 -2.3500001 3.45
24.65 -2.25 0.85000002
24.65 -2.25 0.94999999
24.65 -2.1500001 3.45
24.65 -2.05 3.3500001
24.65 -2.05 3.45
24.65 -1.95 3.3500001
24.65 -1.95 3.45
24.65 -1.85 0.94999999
24.65 -1.85 1.0500001
24.65 -1.85 3.3500001
24.65 -1.75 0.94999999
24.65 -1.75 1.0500001
24.65 -1.75 1.15
24.65 -1.75 3.1500001
24.65 -1.75 3.3500001
24.65 -1.65 1.0500001
24.65 -1.65 1.15
24.65 -1.65 2.8500001
24.65 -1.65 2.95
24.65 -1.5500001 1.0500001
24.65 -1.5500001 1.15
24.65 -1.5500001 1.25
24.65 -1.5500001 1.35
24.65 -1.5500001 2.8500001
24.65 -1.45 1.0500001
24.65 -1.45 1.15
24.65 -1.45 1.25
24.65 -1.45 1.35
24.65 -1.45 2.6500001
24.65 -1.45 2.8500001
24.65 -1.45 3.25
24.65 -1.35 1.15
24.65 -1.35 1.35
24.65 -1.35 1.45
24.65 -1.35 2.45
24.65 -1.35 2.55
24.65 -1.35 2.95
24.65 -1.35 3.05
24.65 -1.35 3.1500001
24.65 -1.35 3.25
24.65 -1.25 1.15
24.65 -1.25 1.25
24.65 -1.25 1.35
24.65 -1.25 1.45
24.65 -1.25 2.25
24.65 -1.25 2.45
24.65 -1.25 2.6500001
24.65 -1.25 2.75
24.65 -1.25 2.95
24.65 -1.25 3.05
24.65 -1.25 3.1500001
24.65 -1.25 3.25
24.65 -1.15 1.35
24.65 -1.15 1.45
24.65 -1.15 2.75
24.65 -1.15 2.95
24.65 -1.15 3.1500001
24.65 -1.15 3.25
24.65 -1.0500001 1.45
24.65 -1.0500001 1.75
24.65 -1.0500001 1.95
24.65 -1.0500001 2.05
24.65 -1.0500001 2.75
24.65 -1.0500001 2.8500001
24.65 -1.0500001 2.95
24.65 -1.0500001 3.05
24.65 -1.0500001 3.1500001
24.65 -0.94999999 1.5500001
24.65 -0.94999999 1.65
24.65 -0.94999999 1.75
24.65 -0.94999999 1.85
24.65 -0.94999999 1.95
24.65 -0.94999999 2.25
24.65 -0.94999999 2.45
24.65 -0.94999999 2.55
24.65 -0.94999999 2.75
24.65 -0.94999999 2.8500001
24.65 -0.85000002 1.5500001
24.65 -0.85000002 2.25
24.65 -0.85000002 2.3500001
24.65 -0.85000002 2.45
24.65 -0.15000001 1.15
24.65 -0.15000001 1.25
24.65 -0.15000001 1.45
24.65 -0.15000001 1.5500001
24.65 -0.15000001 1.65
24.65 -0.15000001 1.75
24.65 -0.15000001 1.95
24.65 -0.050000001 -0.050000001
24.65 -0.050000001 0.050000001
24.65 -0.050000001 0.15000001
24.65 -0.050000001 1.0500001
24.65 -0.050000001 1.15
24.65 -0.050000001 1.25
24.65 -0.050000001 1.35
24.65 -0.050000001 1.45
24.65 -0.050000001 1.5500001
24.65 -0.050000001 1.65
24.65 -0.050000001 1.75
24.65 -0.050000001 1.85
24.65 -0.050000001 2.3500001
24.65 -0.050000001 2.55
24.65 -0.050000001 2.6500001
24.65 0.050000001 0.050000001
24.65 0.050000001 0.15000001
24.65 0.050000001 0.25
24.65 0.050000001 0.34999999
24.65 0.050000001 0.45000002
24.65 0.050000001 0.55000001
24.65 0.050000001 0.65000004
24.65 0.050000001 0.75
24.65 0.050000001 0.85000002
24.65 0.050000001 0.94999999
24.65 0.050000001 1.0500001
24.65 0.050000001 1.25
24.65 0.050000001 1.85
24.65 0.050000001 2.3500001
24.65 0.050000001 2.45
24.65 0.050000001 2.55
24.65 0.050000001 2.6500001
24.65 0.050000001 2.75
24.65 0.050000001 2.8500001
24.65 0.050000001 2.95
24.65 0.050000001 3.05
24.65 0.050000001 3.1500001
24.65 0.050000001 3.25
24.65 0.15000001 0.45000002
24.65 0.15000001 0.55000001
24.65 0.15000001 0.65000004
24.65 0.15000001 0.75
24.65 0.15000001 0.85000002
24.65 0.15000001 0.94999999
24.65 0.15000001 1.15
24.65 0.15000001 1.25
24.65 0.15000001 1.75
24.65 0.15000001 2.55
24.65 0.15000001 2.6500001
24.65 0.15000001 2.75
24.65 0.15000001 2.8500001
24.65 0.15000001 2.95
24.65 0.15000001 3.05
24.65 0.15000001 3.1500001
24.65 0.15000001 3.25
24.65 0.15000001 3.3500001
24.65 0.15000001 4.4500003
24.65 0.25 3.25
24.65 0.25 3.3500001
24.65 0.25 3.45
24.65 0.25 4.4500003
24.65 0.34999999 3.3500001
24.65 0.34999999 3.45
24.65 0.34999999 3.55
24.65 0.34999999 4.5500002
24.65 0.34999999 5.3499999
24.65 0.34999999 5.4500003
24.65 0.45000002 3.3500001
24.65 0.45000002 3.45
24.65 0.45000002 3.55
24.65 0.55000001 3.3500001
24.65 0.55000001 3.45
24.65 0.65000004 3.45
24.65 0.75 3.3500001
24.65 0.75 3.45
24.65 0.85000002 3.3500001
24.65 0.85000002 3.45
24.65 0.94999999 3.3500001
24.65 0.94999999 3.45
24.65 1.0500001 3.3500001
24.65 1.0500001 4.5500002
24.65 1.15 3.25
24.65 1.15 3.3500001
24.65 1.25 3.25
24.65 1.25 3.3500001
24.65 1.35 3.25
24.65 1.35 3.3500001
24.65 1.45 3.25
24.65 1.45 3.3500001
24.65 1.5500001 3.25
24.65 1.5500001 3.3500001
24.65 1.65 3.25
24.65 1.65 3.3500001
24.65 1.75 3.25
24.65 1.75 3.3500001
24.65 1.85 3.25
24.65 1.85 3.3500001
24.65 1.95 3.25
24.65 1.95 3.3500001
24.65 2.05 3.1500001
24.65 2.05 3.25
24.65 2.05 3.3500001
24.65 2.1500001 0.15000001
24.65 2.1500001 0.25
24.65 2.1500001 0.34999999
24.65 2.1500001 0.45000002
24.65 2.1500001 0.75
24.65 2.1500001 2.95
24.65 2.1500001 3.05
24.65 2.1500001 3.1500001
24.65 2.1500001 3.25
24.65 2.25 0.15000001
24.65 2.25 0.45000002
24.65 2.25 0.55000001
24.65 2.25 0.65000004
24.65 2.25 0.75
24.65 2.25 0.85000002
24.65 2.25 0.94999999
24.65 2.25 1.0500001
24.65 2.25 1.15
24.65 2.25 1.25
24.65 2.25 1.35
24.65 2.25 2.25
24.65 2.25 2.55
24.65 2.25 2.6500001
24.65 2.25 2.75
24.65 2.25 2.8500001
24.65 2.25 2.95
24.65 2.25 3.05
24.65 2.25 3.1500001
24.65 2.3500001 1.35
24.65 2.3500001 1.45
24.65 2.3500001 2.05
24.65 2.3500001 2.1500001
24.65 2.3500001 2.25
24.65 2.3500001 2.45
24.65 2.3500001 2.55
24.65 2.3500001 2.6500001
24.65 2.3500001 2.75
24.65 2.3500001 2.8500001
24.65 2.3500001 2.95
24.65 2.45 1.35
24.65 2.45 1.45
24.65 2.45 1.5500001
24.65 2.45 1.65
24.65 2.45 1.75
24.65 2.45 1.85
24.65 2.45 1.95
24.65 2.45 2.05
24.65 2.45 2.1500001
24.65 2.45 2.25
24.65 2.45 2.3500001
24.65 2.45 2.45
24.65 3.8500001 2.55
24.65 3.8500001 2.6500001
24.65 3.8500001 2.75
24.65 3.8500001 2.8500001
24.65 3.8500001 2.95
24.65 3.8500001 3.05
24.65 3.8500001 3.1500001
24.65 3.95 3.05
24.65 3.95 3.1500001
24.65 3.95 3.25
24.65 3.95 3.3500001
24.65 4.0500002 3.25
24.65 4.0500002 3.3500001
24.65 4.1500001 3.25
24.65 4.1500001 3.3500001
24.65 4.1500001 3.45
24.65 4.25 3.25
24.65 4.25 3.45
24.65 4.3499999 3.3500001
24.65 4.3499999 3.45
24.65 4.4500003 3.25
24.65 4.4500003 3.3500001
24.65 4.4500003 3.45
24.65 4.5500002 3.25
24.65 4.5500002 3.3500001
24.65 4.5500002 3.45
24.65 4.6500001 3.25
24.65 4.6500001 3.3500001
24.65 4.75 3.25
24.65 4.75 3.3500001
24.65 4.8499999 3.3500001
24.75 -3.75 3.95
24.75 -3.55 3.95
24.75 -3.45 3.8500001
24.75 -3.45 3.95
24.75 -3.3500001 3.8500001
24.75 -3.25 0.94999999
24.75 -3.25 1.0500001
24.75 -3.25 3.8500001
24.75 -3.1500001 0.94999999
24.75 -3.1500001 3.8500001
24.75 -3.05 0.94999999
24.75 -3.05 3.8500001
24.75 -2.95 0.94999999
24.75 -2.8500001 0.94999999
24.75 -2.75 0.94999999
24.75 -2.75 1.0500001
24.75 -2.75 3.3500001
24.75 -2.75 3.75
24.75 -2.6500001 1.0500001
24.75 -2.6500001 3.3500001
24.75 -2.55 1.0500001
24.75 -2.55 3.45
24.75 -2.45 0.94999999
24.75 -2.45 1.0500001
24.75 -2.45 3.45
24.75 -2.3500001 0.85000002
24.75 -2.3500001 0.94999999
24.75 -2.3500001 1.0500001
24.75 -2.3500001 3.45
24.75 -2.3500001 3.55
24.75 -2.25 0.85000002
24.75 -2.25 3.45
24.75 -2.25 3.55
24.75 -2.1500001 0.85000002
24.75 -2.1500001 3.3500001
24.75 -2.1500001 3.45
24.75 -2.05 0.94999999
24.75 -2.05 3.3500001
24.75 -2.05 3.45
24.75 -1.95 0.94999999
24.75 -1.95 1.0500001
24.75 -1.95 1.15
24.75 -1.95 3.3500001
24.75 -1.95 3.45
24.75 -1.85 0.94999999
24.75 -1.85 1.0500001
24.75 -1.85 1.15
24.75 -1.85 3.05
24.75 -1.85 3.1500001
24.75 -1.85 3.3500001
24.75 -1.75 1.15
24.75 -1.75 2.75
24.75 -1.75 2.8500001
24.75 -1.75 2.95
24.75 -1.75 3.25
24.75 -1.75 3.3500001
24.75 -1.65 1.15
24.75 -1.65 1.35
24.75 -1.65 2.75
24.75 -1.65 2.8500001
24.75 -1.5500001 1.0500001
24.75 -1.5500001 1.15
24.75 -1.5500001 1.25
24.75 -1.5500001 1.35
24.75 -1.45 1.25
24.75 -1.45 1.35
24.75 -1.45 2.55
24.75 -1.45 2.8500001
24.75 -1.45 2.95
24.75 -1.45 3.05
24.75 -1.45 3.1500001
24.75 -1.35 1.25
24.75 -1.35 1.35
24.75 -1.35 1.45
24.75 -1.35 1.5500001
24.75 -1.35 2.25
24.75 -1.35 2.45
24.75 -1.35 2.55
24.75 -1.35 2.6500001
24.75 -1.35 2.75
24.75 -1.35 2.95
24.75 -1.35 3.05
24.75 -1.35 3.1500001
24.75 -1.35 3.25
24.75 -1.35 3.3500001
24.75 -1.25 1.25
24.75 -1.25 1.35
24.75 -1.25 1.45
24.75 -1.25 2.6500001
24.75 -1.25 2.75
24.75 -1.25 3.25
24.75 -1.15 1.35
24.75 -1.15 1.45
24.75 -1.15 1.5500001
24.75 -1.15 1.65
24.75 -1.15 2.75
24.75 -1.15 2.95
24.75 -1.15 3.05
24.75 -1.15 3.25
24.75 -1.0500001 1.65
24.75 -1.0500001 1.75
24.75 -1.0500001 1.85
24.75 -1.0500001 1.95
24.75 -1.0500001 2.05
24.75 -1.0500001 2.1500001
24.75 -1.0500001 2.95
24.75 -0.94999999 1.65
24.75 -0.94999999 1.75
24.75 -0.94999999 1.85
24.75 -0.94999999 2.25
24.75 -0.94999999 2.3500001
24.75 -0.94999999 2.45
24.75 -0.94999999 2.55
24.75 -0.94999999 2.6500001
24.75 -0.94999999 2.75
24.75 -0.85000002 1.45
24.75 -0.85000002 2.25
24.75 -0.85000002 2.3500001
24.75 -0.15000001 1.15
24.75 -0.15000001 1.25
24.75 -0.15000001 1.35
24.75 -0.15000001 1.45
24.75 -0.15000001 1.5500001
24.75 -0.15000001 1.65
24.75 -0.15000001 1.75
24.75 -0.15000001 1.85
24.75 -0.050000001 -0.050000001
24.75 -0.050000001 0.050000001
24.75 -0.050000001 0.15000001
24.75 -0.050000001 1.25
24.75 -0.050000001 1.35
24.75 -0.050000001 1.45
24.75 -0.050000001 1.5500001
24.75 -0.050000001 1.65
24.75 -0.050000001 1.75
24.75 -0.050000001 1.85
24.75 -0.050000001 2.55
24.75 -0.050000001 2.6500001
24.75 0.050000001 0.050000001
24.75 0.050000001 0.15000001
24.75 0.050000001 0.25
24.75 0.050000001 0.34999999
24.75 0.050000001 0.45000002
24.75 0.050000001 0.55000001
24.75 0.050000001 0.65000004
24.75 0.050000001 0.75
24.75 0.050000001 0.85000002
24.75 0.050000001 0.94999999
24.75 0.050000001 1.0500001
24.75 0.050000001 1.15
24.75 0.050000001 1.25
24.75 0.050000001 2.3500001
24.75 0.050000001 2.45
24.75 0.050000001 2.55
24.75 0.050000001 2.6500001
24.75 0.050000001 2.75
24.75 0.050000001 2.8500001
24.75 0.050000001 2.95
24.75 0.050000001 3.05
24.75 0.050000001 3.1500001
24.75 0.050000001 3.25
24.75 0.15000001 0.45000002
24.75 0.15000001 0.55000001
24.75 0.15000001 0.65000004
24.75 0.15000001 0.75
24.75 0.15000001 0.85000002
24.75 0.15000001 1.45
24.75 0.15000001 1.5500001
24.75 0.15000001 1.75
24.75 0.15000001 2.75
24.75 0.15000001 2.8500001
24.75 0.15000001 2.95
24.75 0.15000001 3.05
24.75 0.15000001 3.1500001
24.75 0.15000001 3.25
24.75 0.15000001 3.3500001
24.75 0.15000001 4.5500002
24.75 0.25 3.25
24.75 0.25 3.3500001
24.75 0.25 3.45
24.75 0.25 4.5500002
24.75 0.34999999 3.3500001
24.75 0.34999999 3.45
24.75 0.34999999 3.55
24.75 0.45000002 3.3500001
24.75 0.45000002 3.45
24.75 0.45000002 3.55
24.75 0.55000001 3.3500001
24.75 0.55000001 3.45
24.75 0.65000004 3.45
24.75 0.75 3.45
24.75 0.85000002 3.3500001
24.75 0.85000002 3.45
24.75 0.94999999 3.3500001
24.75 0.94999999 3.45
24.75 1.0500001 3.3500001
24.75 1.0500001 3.45
24.75 1.0500001 4.5500002
24.75 1.15 3.25
24.75 1.15 3.3500001
24.75 1.15 4.6500001
24.75 1.25 3.25
24.75 1.25 3.3500001
24.75 1.25 4.6500001
24.75 1.35 3.25
24.75 1.35 3.3500001
24.75 1.45 3.25
24.75 1.45 3.3500001
24.75 1.5500001 3.25
24.75 1.5500001 3.3500001
24.75 1.65 3.25
24.75 1.65 3.3500001
24.75 1.65 3.45
24.75 1.75 3.25
24.75 1.75 3.3500001
24.75 1.75 3.45
24.75 1.85 3.25
24.75 1.85 3.3500001
24.75 1.95 3.25
24.75 1.95 3.3500001
24.75 2.05 3.1500001
24.75 2.05 3.25
24.75 2.05 3.3500001
24.75 2.1500001 0.15000001
24.75 2.1500001 0.25
24.75 2.1500001 0.34999999
24.75 2.1500001 0.45000002
24.75 2.1500001 0.75
24.75 2.1500001 2.95
24.75 2.1500001 3.05
24.75 2.1500001 3.1500001
24.75 2.1500001 3.25
24.75 2.25 0.15000001
24.75 2.25 0.34999999
24.75 2.25 0.45000002
24.75 2.25 0.55000001
24.75 2.25 0.65000004
24.75 2.25 0.75
24.75 2.25 0.85000002
24.75 2.25 0.94999999
24.75 2.25 1.0500001
24.75 2.25 1.15
24.75 2.25 1.25
24.75 2.25 1.35
24.75 2.25 1.45
24.75 2.25 2.25
24.75 2.25 2.55
24.75 2.25 2.6500001
24.75 2.25 2.75
24.75 2.25 2.8500001
24.75 2.25 2.95
24.75 2.25 3.05
24.75 2.25 3.1500001
24.75 2.3500001 1.35
24.75 2.3500001 1.45
24.75 2.3500001 1.5500001
24.75 2.3500001 1.65
24.75 2.3500001 1.75
24.75 2.3500001 1.95
24.75 2.3500001 2.05
24.75 2.3500001 2.1500001
24.75 2.3500001 2.25
24.75 2.3500001 2.3500001
24.75 2.3500001 2.45
24.75 2.3500001 2.55
24.75 2.3500001 2.6500001
24.75 2.3500001 2.75
24.75 2.3500001 2.8500001
24.75 2.3500001 2.95
24.75 2.45 1.35
24.75 2.45 1.45
24.75 2.45 1.5500001
24.75 2.45 1.65
24.75 2.45 1.75
24.75 2.45 1.85
24.75 2.45 1.95
24.75 2.45 2.05
24.75 2.45 2.1500001
24.75 2.45 2.3500001
24.75 3.8500001 2.75
24.75 3.95 2.45
24.75 3.95 2.6500001
24.75 3.95 2.8500001
24.75 3.95 2.95
24.75 3.95 3.05
24.75 3.95 3.1500001
24.75 3.95 3.25
24.75 4.0500002 3.1500001
24.75 4.0500002 3.25
24.75 4.0500002 3.3500001
24.75 4.1500001 3.25
24.75 4.1500001 3.3500001
24.75 4.25 3.25
24.75 4.25 3.3500001
24.75 4.25 3.45
24.75 4.3499999 3.25
24.75 4.3499999 3.45
24.75 4.4500003 3.25
24.75 4.4500003 3.3500001
24.75 4.4500003 3.45
24.75 4.5500002 3.3500001
24.75 4.5500002 3.45
24.75 4.6500001 3.25
24.75 4.6500001 3.3500001
24.75 4.6500001 3.45
24.75 4.75 3.25
24.75 4.75 3.3500001
24.75 4.8499999 3.25
24.85 -3.45 3.8500001
24.85 -3.3500001 3.8500001
24.85 -3.25 0.94999999
24.85 -3.25 1.0500001
24.85 -3.25 3.8500001
24.85 -3.1500001 0.94999999
24.85 -3.1500001 3.8500001
24.85 -3.05 0.94999999
24.85 -2.95 0.94999999
24.85 -2.8500001 0.94999999
24.85 -2.8500001 1.0500001
24.85 -2.8500001 3.3500001
24.85 -2.75 1.0500001
24.85 -2.75 3.3500001
24.85 -2.55 1.0500001
24.85 -2.55 3.45
24.85 -2.55 3.55
24.85 -2.45 0.94999999
24.85 -2.45 1.0500001
24.85 -2.45 3.45
24.85 -2.45 3.55
24.85 -2.3500001 0.85000002
24.85 -2.3500001 0.94999999
24.85 -2.3500001 3.45
24.85 -2.3500001 3.55
24.85 -2.25 0.85000002
24.85 -2.25 3.3500001
24.85 -2.25 3.45
24.85 -2.1500001 0.85000002
24.85 -2.1500001 0.94999999
24.85 -2.1500001 3.3500001
24.85 -2.1500001 3.45
24.85 -2.05 0.94999999
24.85 -2.05 1.0500001
24.85 -2.05 1.15
24.85 -2.05 3.3500001
24.85 -2.05 3.45
24.85 -1.95 0.94999999
24.85 -1.95 1.0500001
24.85 -1.95 1.15
24.85 -1.95 3.1500001
24.85 -1.95 3.3500001
24.85 -1.95 3.45
24.85 -1.85 1.15
24.85 -1.85 2.95
24.85 -1.85 3.3500001
24.85 -1.75 1.15
24.85 -1.75 1.25
24.85 -1.75 3.3500001
24.85 -1.65 1.15
24.85 -1.65 1.25
24.85 -1.65 1.45
24.85 -1.5500001 1.25
24.85 -1.5500001 1.35
24.85 -1.5500001 1.45
24.85 -1.5500001 2.8500001
24.85 -1.45 1.25
24.85 -1.45 1.35
24.85 -1.45 2.3500001
24.85 -1.45 2.45
24.85 -1.45 2.55
24.85 -1.45 2.6500001
24.85 -1.45 2.8500001
24.85 -1.45 2.95
24.85 -1.45 3.05
24.85 -1.45 3.1500001
24.85 -1.45 3.3500001
24.85 -1.35 1.35
24.85 -1.35 1.45
24.85 -1.35 1.5500001
24.85 -1.35 2.05
24.85 -1.35 2.1500001
24.85 -1.35 2.6500001
24.85 -1.35 2.75
24.85 -1.35 2.8500001
24.85 -1.35 2.95
24.85 -1.35 3.05
24.85 -1.35 3.25
24.85 -1.35 3.3500001
24.85 -1.25 1.35
24.85 -1.25 1.45
24.85 -1.25 1.5500001
24.85 -1.25 2.95
24.85 -1.25 3.25
24.85 -1.25 3.3500001
24.85 -1.15 1.45
24.85 -1.15 1.5500001
24.85 -1.15 1.85
24.85 -1.15 1.95
24.85 -1.15 2.05
24.85 -1.15 2.8500001
24.85 -1.15 2.95
24.85 -1.15 3.25
24.85 -1.0500001 1.5500001
24.85 -1.0500001 1.65
24.85 -1.0500001 1.75
24.85 -1.0500001 1.85
24.85 -1.0500001 1.95
24.85 -1.0500001 2.3500001
24.85 -1.0500001 2.45
24.85 -1.0500001 2.55
24.85 -1.0500001 2.75
24.85 -1.0500001 2.8500001
24.85 -0.94999999 1.45
24.85 -0.94999999 2.25
24.85 -0.94999999 2.3500001
24.85 -0.94999999 2.45
24.85 -0.15000001 1.25
24.85 -0.15000001 1.35
24.85 -0.15000001 1.45
24.85 -0.15000001 1.5500001
24.85 -0.15000001 1.75
24.85 -0.15000001 1.85
24.85 -0.050000001 -0.050000001
24.85 -0.050000001 0.050000001
24.85 -0.050000001 0.15000001
24.85 -0.050000001 1.25
24.85 -0.050000001 1.35
24.85 -0.050000001 1.45
24.85 -0.050000001 1.5500001
24.85 -0.050000001 1.65
24.85 -0.050000001 1.75
24.85 -0.050000001 2.55
24.85 -0.050000001 2.6500001
24.85 -0.050000001 2.75
24.85 0.050000001 0.050000001
24.85 0.050000001 0.15000001
24.85 0.050000001 0.25
24.85 0.050000001 0.34999999
24.85 0.050000001 0.45000002
24.85 0.050000001 0.55000001
24.85 0.050000001 0.65000004
24.85 0.050000001 0.75
24.85 0.050000001 0.85000002
24.85 0.050000001 0.94999999
24.85 0.050000001 1.0500001
24.85 0.050000001 1.15
24.85 0.050000001 1.45
24.85 0.050000001 2.05
24.85 0.050000001 2.55
24.85 0.050000001 2.6500001
24.85 0.050000001 2.75
24.85 0.050000001 2.8500001
24.85 0.050000001 2.95
24.85 0.050000001 3.05
24.85 0.050000001 3.1500001
24.85 0.050000001 3.25
24.85 0.15000001 0.45000002
24.85 0.15000001 0.55000001
24.85 0.15000001 0.65000004
24.85 0.15000001 1.45
24.85 0.15000001 1.5500001
24.85 0.15000001 1.75
24.85 0.15000001 2.6500001
24.85 0.15000001 2.75
24.85 0.15000001 2.8500001
24.85 0.15000001 2.95
24.85 0.15000001 3.05
24.85 0.15000001 3.1500001
24.85 0.15000001 3.25
24.85 0.15000001 3.3500001
24.85 0.25 3.25
24.85 0.25 3.3500001
24.85 0.25 3.45
24.85 0.34999999 3.3500001
24.85 0.34999999 3.45
24.85 0.34999999 3.55
24.85 0.45000002 3.3500001
24.85 0.45000002 3.45
24.85 0.45000002 3.55
24.85 0.55000001 3.3500001
24.85 0.55000001 3.45
24.85 0.65000004 3.45
24.85 0.75 3.45
24.85 0.85000002 3.3500001
24.85 0.85000002 3.45
24.85 0.94999999 3.3500001
24.85 0.94999999 3.45
24.85 1.0500001 3.3500001
24.85 1.0500001 3.45
24.85 1.0500001 4.6500001
24.85 1.15 3.25
24.85 1.15 3.3500001
24.85 1.15 4.6500001
24.85 1.15 4.75
24.85 1.25 3.25
24.85 1.25 3.3500001
24.85 1.25 4.6500001
24.85 1.35 3.25
24.85 1.35 3.3500001
24.85 1.45 3.25
24.85 1.45 3.3500001
24.85 1.5500001 3.25
24.85 1.5500001 3.3500001
24.85 1.65 3.25
24.85 1.65 3.3500001
24.85 1.65 3.45
24.85 1.75 3.3500001
24.85 1.75 3.45
24.85 1.85 3.25
24.85 1.85 3.3500001
24.85 1.95 3.25
24.85 1.95 3.3500001
24.85 2.05 3.1500001
24.85 2.05 3.25
24.85 2.05 3.3500001
24.85 2.1500001 0.050000001
24.85 2.1500001 0.15000001
24.85 2.1500001 0.25
24.85 2.1500001 0.34999999
24.85 2.1500001 0.45000002
24.85 2.1500001 0.65000004
24.85 2.1500001 0.75
24.85 2.1500001 2.95
24.85 2.1500001 3.05
24.85 2.1500001 3.1500001
24.85 2.1500001 3.25
24.85 2.25 0.050000001
24.85 2.25 0.15000001
24.85 2.25 0.34999999
24.85 2.25 0.45000002
24.85 2.25 0.55000001
24.85 2.25 0.65000004
24.85 2.25 0.75
24.85 2.25 0.85000002
24.85 2.25 0.94999999
24.85 2.25 1.0500001
24.85 2.25 1.15
24.85 2.25 1.25
24.85 2.25 1.45
24.85 2.25 2.6500001
24.85 2.25 2.75
24.85 2.25 2.8500001
24.85 2.25 2.95
24.85 2.25 3.05
24.85 2.25 3.1500001
24.85 2.3500001 1.15
24.85 2.3500001 1.25
24.85 2.3500001 1.35
24.85 2.3500001 1.45
24.85 2.3500001 1.5500001
24.85 2.3500001 1.65
24.85 2.3500001 1.75
24.85 2.3500001 1.85
24.85 2.3500001 1.95
24.85 2.3500001 2.05
24.85 2.3500001 2.1500001
24.85 2.3500001 2.25
24.85 2.3500001 2.3500001
24.85 2.3500001 2.45
24.85 2.3500001 2.55
24.85 2.3500001 2.6500001
24.85 2.3500001 2.75
24.85 2.3500001 2.8500001
24.85 2.3500001 2.95
24.85 2.45 1.5500001
24.85 2.45 1.65
24.85 2.45 1.75
24.85 2.45 1.85
24.85 3.95 2.75
24.85 3.95 2.8500001
24.85 3.95 3.05
24.85 3.95 3.1500001
24.85 4.0500002 2.95
24.85 4.0500002 3.05
24.85 4.0500002 3.1500001
24.85 4.0500002 3.25
24.85 4.1500001 3.25
24.85 4.1500001 3.3500001
24.85 4.25 3.25
24.85 4.25 3.3500001
24.85 4.25 3.45
24.85 4.3499999 3.25
24.85 4.3499999 3.45
24.85 4.4500003 3.25
24.85 4.4500003 3.3500001
24.85 4.4500003 3.45
24.85 4.5500002 3.25
24.85 4.5500002 3.3500001
24.85 4.5500002 3.45
24.85 4.6500001 3.25
24.85 4.6500001 3.3500001
24.85 4.75 3.25
24.85 4.75 3.3500001
24.85 4.8499999 3.25
24.85 4.8499999 3.3500001
24.85 4.9500003 3.25
24.950001 -3.55 3.8500001
24.950001 -3.45 1.0500001
24.950001 -3.45 3.8500001
24.950001 -3.3500001 3.8500001
24.950001 -3.25 0.94999999
24.950001 -3.25 1.0500001
24.950001 -3.1500001 0.94999999
24.950001 -3.05 0.94999999
24.950001 -3.05 1.0500001
24.950001 -2.95 0.94999999
24.950001 -2.95 1.0500001
24.950001 -2.8500001 1.0500001
24.950001 -2.8500001 3.3500001
24.950001 -2.75 3.3500001
24.950001 -2.6500001 1.0500001
24.950001 -2.6500001 3.45
24.950001 -2.6500001 3.55
24.950001 -2.55 1.0500001
24.950001 -2.55 3.45
24.950001 -2.55 3.55
24.950001 -2.45 0.94999999
24.950001 -2.45 1.0500001
24.950001 -2.45 3.45
24.950001 -2.45 3.55
24.950001 -2.3500001 0.85000002
24.950001 -2.3500001 3.3500001
24.950001 -2.3500001 3.45
24.950001 -2.25 0.85000002
24.950001 -2.25 0.94999999
24.950001 -2.25 3.3500001
24.950001 -2.25 3.45
24.950001 -2.1500001 0.94999999
24.950001 -2.1500001 1.0500001
24.950001 -2.1500001 1.15
24.950001 -2.1500001 1.25
24.950001 -2.1500001 3.3500001
24.950001 -2.1500001 3.45
24.950001 -2.05 0.94999999
24.950001 -2.05 1.0500001
24.950001 -2.05 1.15
24.950001 -2.05 1.25
24.950001 -2.05 3.1500001
24.950001 -2.05 3.3500001
24.950001 -2.05 3.45
24.950001 -1.95 1.15
24.950001 -1.95 1.25
24.950001 -1.95 2.95
24.950001 -1.95 3.05
24.950001 -1.95 3.3500001
24.950001 -1.85 1.15
24.950001 -1.85 1.25
24.950001 -1.85 1.35
24.950001 -1.85 2.8500001
24.950001 -1.85 3.3500001
24.950001 -1.75 1.25
24.950001 -1.75 1.45
24.950001 -1.75 2.75
24.950001 -1.75 2.8500001
24.950001 -1.65 1.25
24.950001 -1.65 1.35
24.950001 -1.65 1.45
24.950001 -1.5500001 1.25
24.950001 -1.5500001 1.35
24.950001 -1.5500001 1.45
24.950001 -1.5500001 2.55
24.950001 -1.5500001 2.6500001
24.950001 -1.5500001 2.8500001
24.950001 -1.5500001 2.95
24.950001 -1.45 1.35
24.950001 -1.45 1.45
24.950001 -1.45 2.6500001
24.950001 -1.45 2.75
24.950001 -1.45 2.8500001
24.950001 -1.45 2.95
24.950001 -1.45 3.05
24.950001 -1.45 3.3500001
24.950001 -1.35 1.35
24.950001 -1.35 1.45
24.950001 -1.35 1.5500001
24.950001 -1.35 2.1500001
24.950001 -1.35 3.1500001
24.950001 -1.35 3.25
24.950001 -1.35 3.3500001
24.950001 -1.25 1.45
24.950001 -1.25 1.5500001
24.950001 -1.25 1.65
24.950001 -1.25 1.75
24.950001 -1.25 2.05
24.950001 -1.25 2.8500001
24.950001 -1.25 2.95
24.950001 -1.25 3.05
24.950001 -1.25 3.1500001
24.950001 -1.25 3.25
24.950001 -1.15 1.5500001
24.950001 -1.15 1.65
24.950001 -1.15 1.75
24.950001 -1.15 1.85
24.950001 -1.15 1.95
24.950001 -1.15 2.1500001
24.950001 -1.15 2.25
24.950001 -1.15 2.3500001
24.950001 -1.0500001 1.75
24.950001 -1.0500001 1.85
24.950001 -1.0500001 2.75
24.950001 -0.050000001 -0.15000001
24.950001 -0.050000001 -0.050000001
24.950001 -0.050000001 0.050000001
24.950001 -0.050000001 1.0500001
24.950001 -0.050000001 1.15
24.950001 -0.050000001 1.35
24.950001 -0.050000001 1.45
24.950001 -0.050000001 1.5500001
24.950001 -0.050000001 1.65
24.950001 -0.050000001 1.75
24.950001 -0.050000001 2.55
24.950001 -0.050000001 2.6500001
24.950001 0.050000001 -0.050000001
24.950001 0.050000001 0.050000001
24.950001 0.050000001 0.15000001
24.950001 0.050000001 0.25
24.950001 0.050000001 0.34999999
24.950001 0.050000001 0.45000002
24.950001 0.050000001 0.55000001
24.950001 0.050000001 0.65000004
24.950001 0.050000001 0.75
24.950001 0.050000001 0.85000002
24.950001 0.050000001 0.94999999
24.950001 0.050000001 1.0500001
24.950001 0.050000001 1.15
24.950001 0.050000001 1.25
24.950001 0.050000001 1.35
24.950001 0.050000001 1.45
24.950001 0.050000001 1.5500001
24.950001 0.050000001 1.65
24.950001 0.050000001 1.75
24.950001 0.050000001 2.05
24.950001 0.050000001 2.25
24.950001 0.050000001 2.55
24.950001 0.050000001 2.6500001
24.950001 0.050000001 2.75
24.950001 0.050000001 2.8500001
24.950001 0.050000001 2.95
24.950001 0.050000001 3.05
24.950001 0.050000001 3.1500001
24.950001 0.050000001 3.25
24.950001 0.15000001 2.8500001
24.950001 0.15000001 2.95
24.950001 0.15000001 3.05
24.950001 0.15000001 3.1500001
24.950001 0.15000001 3.25
24.950001 0.15000001 3.3500001
24.950001 0.25 3.25
24.950001 0.25 3.3500001
24.950001 0.25 3.45
24.950001 0.34999999 3.3500001
24.950001 0.34999999 3.45
24.950001 0.34999999 3.55
24.950001 0.45000002 3.55
24.950001 0.55000001 3.45
24.950001 0.65000004 3.45
24.950001 0.75 3.45
24.950001 0.85000002 3.45
24.950001 0.94999999 3.3500001
24.950001 0.94999999 3.45
24.950001 1.0500001 3.3500001
24.950001 1.0500001 3.45
24.950001 1.15 3.3500001
24.950001 1.25 3.3500001
24.950001 1.25 3.45
24.950001 1.35 3.25
24.950001 1.35 3.3500001
24.950001 1.35 3.45
24.950001 1.45 3.25
24.950001 1.45 3.3500001
24.950001 1.5500001 3.25
24.950001 1.5500001 3.3500001
24.950001 1.5500001 3.45
24.950001 1.65 3.45
24.950001 1.75 3.45
24.950001 1.85 3.25
24.950001 1.85 3.3500001
24.950001 1.85 3.45
24.950001 1.95 3.1500001
24.950001 1.95 3.25
24.950001 1.95 3.3500001
24.950001 2.05 3.1500001
24.950001 2.05 3.25
24.950001 2.05 3.3500001
24.950001 2.1500001 0.050000001
24.950001 2.1500001 0.15000001
24.950001 2.1500001 0.25
24.950001 2.1500001 0.34999999
24.950001 2.1500001 2.95
24.950001 2.1500001 3.05
24.950001 2.1500001 3.1500001
24.950001 2.1500001 3.25
24.950001 2.25 0.050000001
24.950001 2.25 0.34999999
24.950001 2.25 0.45000002
24.950001 2.25 0.55000001
24.950001 2.25 0.65000004
24.950001 2.25 0.75
24.950001 2.25 0.85000002
24.950001 2.25 0.94999999
24.950001 2.25 1.0500001
24.950001 2.25 1.15
24.950001 2.25 1.25
24.950001 2.25 2.75
24.950001 2.25 2.8500001
24.950001 2.25 2.95
24.950001 2.25 3.05
24.950001 2.25 3.1500001
24.950001 2.3500001 1.15
24.950001 2.3500001 1.25
24.950001 2.3500001 1.35
24.950001 2.3500001 1.45
24.950001 2.3500001 1.5500001
24.950001 2.3500001 1.65
24.950001 2.3500001 1.75
24.950001 2.3500001 1.85
24.950001 2.3500001 1.95
24.950001 2.3500001 2.05
24.950001 2.3500001 2.1500001
24.950001 2.3500001 2.25
24.950001 2.3500001 2.3500001
24.950001 2.3500001 2.45
24.950001 2.3500001 2.55
24.950001 2.3500001 2.6500001
24.950001 2.3500001 2.75
24.950001 2.3500001 2.8500001
24.950001 2.3500001 2.95
24.950001 2.45 1.95
24.950001 2.45 2.05
24.950001 2.45 2.1500001
24.950001 4.0500002 2.55
24.950001 4.0500002 2.75
24.950001 4.0500002 2.8500001
24.950001 4.0500002 2.95
24.950001 4.0500002 3.05
24.950001 4.0500002 3.1500001
24.950001 4.0500002 3.25
24.950001 4.1500001 2.95
24.950001 4.1500001 3.05
24.950001 4.1500001 3.1500001
24.950001 4.1500001 3.25
24.950001 4.25 3.25
24.950001 4.25 3.3500001
24.950001 4.3499999 3.25
24.950001 4.3499999 3.45
24.950001 4.4500003 3.25
24.950001 4.4500003 3.45
24.950001 4.5500002 3.3500001
24.950001 4.6500001 3.25
24.950001 4.6500001 3.3500001
24.950001 4.75 3.25
24.950001 4.75 3.3500001
24.950001 4.8499999 3.25
24.950001 4.8499999 3.3500001
24.950001 4.9500003 3.25
24.950001 4.9500003 3.3500001
25.050001 -3.55 1.0500001
25.050001 -3.55 1.15
25.050001 -3.55 3.8500001
25.050001 -3.45 1.0500001
25.050001 -3.45 1.15
25.050001 -3.45 3.8500001
25.050001 -3.3500001 1.0500001
25.050001 -3.25 0.94999999
25.050001 -3.25 1.0500001
25.050001 -3.1500001 0.94999999
25.050001 -3.1500001 1.0500001
25.050001 -3.05 0.94999999
25.050001 -3.05 1.0500001
25.050001 -2.95 1.0500001
25.050001 -2.95 3.3500001
25.050001 -2.8500001 1.25
25.050001 -2.75 1.0500001
25.050001 -2.75 1.15
25.050001 -2.75 1.25
25.050001 -2.75 3.45
25.050001 -2.6500001 1.0500001
25.050001 -2.6500001 1.15
25.050001 -2.6500001 3.45
25.050001 -2.6500001 3.55
25.050001 -2.55 1.0500001
25.050001 -2.55 1.15
25.050001 -2.55 3.45
25.050001 -2.55 3.55
25.050001 -2.45 0.94999999
25.050001 -2.45 1.0500001
25.050001 -2.45 1.15
25.050001 -2.45 3.45
25.050001 -2.3500001 0.94999999
25.050001 -2.3500001 1.0500001
25.050001 -2.3500001 1.15
25.050001 -2.3500001 3.3500001
25.050001 -2.3500001 3.45
25.050001 -2.25 0.94999999
25.050001 -2.25 1.0500001
25.050001 -2.25 1.15
25.050001 -2.25 1.25
25.050001 -2.25 3.3500001
25.050001 -2.25 3.45
25.050001 -2.1500001 0.94999999
25.050001 -2.1500001 1.0500001
25.050001 -2.1500001 1.15
25.050001 -2.1500001 1.25
25.050001 -2.1500001 3.25
25.050001 -2.1500001 3.3500001
25.050001 -2.1500001 3.45
25.050001 -2.05 1.15
25.050001 -2.05 1.25
25.050001 -2.05 2.95
25.050001 -2.05 3.05
25.050001 -2.05 3.3500001
25.050001 -1.95 1.15
25.050001 -1.95 1.25
25.050001 -1.95 2.8500001
25.050001 -1.95 3.3500001
25.050001 -1.85 1.25
25.050001 -1.85 1.35
25.050001 -1.85 1.45
25.050001 -1.85 2.75
25.050001 -1.85 2.8500001
25.050001 -1.75 1.25
25.050001 -1.75 1.35
25.050001 -1.75 1.45
25.050001 -1.65 1.45
25.050001 -1.65 2.8500001
25.050001 -1.65 2.95
25.050001 -1.5500001 1.35
25.050001 -1.5500001 1.45
25.050001 -1.5500001 2.55
25.050001 -1.5500001 2.6500001
25.050001 -1.5500001 2.75
25.050001 -1.5500001 2.8500001
25.050001 -1.5500001 2.95
25.050001 -1.5500001 3.05
25.050001 -1.45 1.35
25.050001 -1.45 1.45
25.050001 -1.45 1.5500001
25.050001 -1.45 2.05
25.050001 -1.45 2.95
25.050001 -1.45 3.05
25.050001 -1.45 3.25
25.050001 -1.45 3.3500001
25.050001 -1.35 1.45
25.050001 -1.35 1.5500001
25.050001 -1.35 1.65
25.050001 -1.35 1.95
25.050001 -1.35 2.95
25.050001 -1.35 3.05
25.050001 -1.35 3.1500001
25.050001 -1.35 3.25
25.050001 -1.35 3.3500001
25.050001 -1.25 1.5500001
25.050001 -1.25 1.65
25.050001 -1.25 1.75
25.050001 -1.25 1.85
25.050001 -1.25 1.95
25.050001 -1.25 2.95
25.050001 -1.25 3.05
25.050001 -1.25 3.1500001
25.050001 -1.15 1.65
25.050001 -1.15 1.75
25.050001 -1.15 1.85
25.050001 -1.15 2.3500001
25.050001 -1.15 2.75
25.050001 -1.15 2.8500001
25.050001 -0.050000001 -0.15000001
25.050001 -0.050000001 -0.050000001
25.050001 -0.050000001 0.050000001
25.050001 -0.050000001 0.85000002
25.050001 -0.050000001 1.0500001
25.050001 -0.050000001 1.15
25.050001 -0.050000001 1.25
25.050001 -0.050000001 1.35
25.050001 -0.050000001 1.45
25.050001 -0.050000001 1.5500001
25.050001 -0.050000001 1.65
25.050001 -0.050000001 1.75
25.050001 -0.050000001 1.85
25.050001 -0.050000001 2.1500001
25.050001 -0.050000001 2.55
25.050001 -0.050000001 2.6500001
25.050001 -0.050000001 2.75
25.050001 0.050000001 -0.050000001
25.050001 0.050000001 0.050000001
25.050001 0.050000001 0.15000001
25.050001 0.050000001 0.25
25.050001 0.050000001 0.34999999
25.050001 0.050000001 0.45000002
25.050001 0.050000001 0.55000001
25.050001 0.050000001 0.65000004
25.050001 0.050000001 0.75
25.050001 0.050000001 0.85000002
25.050001 0.050000001 1.25
25.050001 0.050000001 1.35
25.050001 0.050000001 1.5500001
25.050001 0.050000001 1.65
25.050001 0.050000001 1.75
25.050001 0.050000001 1.85
25.050001 0.050000001 2.6500001
25.050001 0.050000001 2.75
25.050001 0.050000001 2.8500001
25.050001 0.050000001 2.95
25.050001 0.050000001 3.05
25.050001 0.050000001 3.1500001
25.050001 0.050000001 3.25
25.050001 0.15000001 2.8500001
25.050001 0.15000001 2.95
25.050001 0.15000001 3.05
25.050001 0.15000001 3.1500001
25.050001 0.15000001 3.25
25.050001 0.15000001 3.3500001
25.050001 0.25 3.25
25.050001 0.25 3.3500001
25.050001 0.25 3.45
25.050001 0.34999999 3.3500001
25.050001 0.34999999 3.45
25.050001 0.34999999 3.55
25.050001 0.45000002 3.45
25.050001 0.45000002 3.55
25.050001 0.55000001 3.45
25.050001 0.65000004 3.45
25.050001 0.75 3.45
25.050001 0.85000002 3.45
25.050001 0.85000002 3.55
25.050001 0.94999999 3.3500001
25.050001 0.94999999 3.45
25.050001 0.94999999 3.55
25.050001 1.0500001 3.3500001
25.050001 1.0500001 3.45
25.050001 1.0500001 4.75
25.050001 1.15 3.3500001
25.050001 1.15 3.45
25.050001 1.25 3.3500001
25.050001 1.25 3.45
25.050001 1.35 3.25
25.050001 1.35 3.3500001
25.050001 1.45 3.25
25.050001 1.45 3.3500001
25.050001 1.5500001 3.25
25.050001 1.5500001 3.3500001
25.050001 1.5500001 3.45
25.050001 1.65 3.45
25.050001 1.75 3.45
25.050001 1.85 3.25
25.050001 1.85 3.3500001
25.050001 1.85 3.45
25.050001 1.95 3.1500001
25.050001 1.95 3.25
25.050001 1.95 3.3500001
25.050001 2.05 3.05
25.050001 2.05 3.1500001
25.050001 2.05 3.25
25.050001 2.05 3.3500001
25.050001 2.1500001 0.050000001
25.050001 2.1500001 0.15000001
25.050001 2.1500001 0.25
25.050001 2.1500001 0.34999999
25.050001 2.1500001 2.95
25.050001 2.1500001 3.05
25.050001 2.1500001 3.1500001
25.050001 2.1500001 3.25
25.050001 2.25 0.34999999
25.050001 2.25 0.45000002
25.050001 2.25 0.55000001
25.050001 2.25 0.65000004
25.050001 2.25 0.75
25.050001 2.25 0.85000002
25.050001 2.25 0.94999999
25.050001 2.25 1.0500001
25.050001 2.25 1.15
25.050001 2.25 1.25
25.050001 2.25 2.75
25.050001 2.25 2.8500001
25.050001 2.25 2.95
25.050001 2.25 3.05
25.050001 2.25 3.1500001
25.050001 2.3500001 0.94999999
25.050001 2.3500001 1.15
25.050001 2.3500001 1.25
25.050001 2.3500001 1.35
25.050001 2.3500001 1.45
25.050001 2.3500001 1.5500001
25.050001 2.3500001 1.65
25.050001 2.3500001 1.75
25.050001 2.3500001 1.85
25.050001 2.3500001 1.95
25.050001 2.3500001 2.3500001
25.050001 2.3500001 2.45
25.050001 2.3500001 2.55
25.050001 2.3500001 2.6500001
25.050001 2.3500001 2.75
25.050001 2.3500001 2.8500001
25.050001 2.3500001 2.95
25.050001 2.45 1.95
25.050001 2.45 2.05
25.050001 2.45 2.1500001
25.050001 4.0500002 3.05
25.050001 4.1500001 2.55
25.050001 4.1500001 2.95
25.050001 4.1500001 3.1500001
25.050001 4.1500001 3.25
25.050001 4.25 3.1500001
25.050001 4.25 3.25
25.050001 4.25 3.3500001
25.050001 4.3499999 3.25
25.050001 4.3499999 3.3500001
25.050001 4.3499999 3.45
25.050001 4.4500003 3.25
25.050001 4.4500003 3.3500001
25.050001 4.4500003 3.45
25.050001 4.5500002 3.3500001
25.050001 4.5500002 3.45
25.050001 4.6500001 3.25
25.050001 4.6500001 3.3500001
25.050001 4.75 3.25
25.050001 4.75 3.3500001
25.050001 4.75 3.45
25.050001 4.8499999 3.25
25.050001 4.8499999 3.3500001
25.050001 4.9500003 3.25
25.050001 4.9500003 3.3500001
25.15 -3.6500001 1.15
25.15 -3.55 1.0500001
25.15 -3.55 1.15
25.15 -3.45 1.0500001
25.15 -3.25 0.94999999
25.15 -3.05 1.0500001
25.15 -3.05 1.15
25.15 -3.05 1.25
25.15 -3.05 1.35
25.15 -3.05 1.45
25.15 -3.05 3.3500001
25.15 -2.95 1.0500001
25.15 -2.95 1.15
25.15 -2.95 1.25
25.15 -2.95 1.35
25.15 -2.95 1.45
25.15 -2.95 3.45
25.15 -2.8500001 1.0500001
25.15 -2.8500001 1.15
25.15 -2.8500001 1.25
25.15 -2.8500001 1.35
25.15 -2.8500001 1.45
25.15 -2.8500001 3.45
25.15 -2.75 1.0500001
25.15 -2.75 1.15
25.15 -2.75 1.25
25.15 -2.75 1.35
25.15 -2.75 1.45
25.15 -2.75 3.45
25.15 -2.75 3.55
25.15 -2.6500001 1.0500001
25.15 -2.6500001 1.15
25.15 -2.6500001 1.25
25.15 -2.6500001 1.75
25.15 -2.6500001 3.45
25.15 -2.6500001 3.55
25.15 -2.55 1.15
25.15 -2.55 1.25
25.15 -2.55 1.65
25.15 -2.55 3.45
25.15 -2.45 1.15
25.15 -2.45 1.25
25.15 -2.45 1.5500001
25.15 -2.45 3.45
25.15 -2.3500001 1.15
25.15 -2.3500001 1.25
25.15 -2.3500001 3.3500001
25.15 -2.3500001 3.45
25.15 -2.25 1.25
25.15 -2.25 1.35
25.15 -2.25 3.3500001
25.15 -2.25 3.45
25.15 -2.1500001 1.25
25.15 -2.1500001 1.35
25.15 -2.1500001 2.95
25.15 -2.1500001 3.05
25.15 -2.1500001 3.3500001
25.15 -2.05 1.25
25.15 -2.05 1.35
25.15 -2.05 2.8500001
25.15 -2.05 2.95
25.15 -2.05 3.3500001
25.15 -1.95 1.25
25.15 -1.95 1.35
25.15 -1.95 1.45
25.15 -1.95 3.3500001
25.15 -1.85 1.35
25.15 -1.85 1.45
25.15 -1.85 2.8500001
25.15 -1.75 1.45
25.15 -1.75 2.8500001
25.15 -1.75 2.95
25.15 -1.65 1.35
25.15 -1.65 1.45
25.15 -1.65 2.55
25.15 -1.65 2.8500001
25.15 -1.65 2.95
25.15 -1.5500001 1.35
25.15 -1.5500001 1.45
25.15 -1.5500001 1.5500001
25.15 -1.5500001 2.1500001
25.15 -1.5500001 2.8500001
25.15 -1.5500001 2.95
25.15 -1.5500001 3.05
25.15 -1.45 1.45
25.15 -1.45 1.5500001
25.15 -1.45 1.65
25.15 -1.45 2.05
25.15 -1.45 2.95
25.15 -1.45 3.05
25.15 -1.45 3.1500001
25.15 -1.45 3.3500001
25.15 -1.35 1.5500001
25.15 -1.35 1.65
25.15 -1.35 1.75
25.15 -1.35 1.85
25.15 -1.35 2.95
25.15 -1.35 3.05
25.15 -1.35 3.1500001
25.15 -1.35 3.25
25.15 -1.25 1.65
25.15 -1.25 1.75
25.15 -1.25 1.85
25.15 -1.25 1.95
25.15 -1.25 2.3500001
25.15 -1.25 2.8500001
25.15 -1.15 2.45
25.15 -1.15 2.75
25.15 -0.050000001 -0.25
25.15 -0.050000001 -0.15000001
25.15 -0.050000001 -0.050000001
25.15 -0.050000001 0.050000001
25.15 -0.050000001 0.75
25.15 -0.050000001 0.85000002
25.15 -0.050000001 0.94999999
25.15 -0.050000001 1.0500001
25.15 -0.050000001 1.15
25.15 -0.050000001 1.25
25.15 -0.050000001 1.35
25.15 -0.050000001 1.5500001
25.15 -0.050000001 1.65
25.15 -0.050000001 1.75
25.15 -0.050000001 1.85
25.15 -0.050000001 1.95
25.15 -0.050000001 2.25
25.15 -0.050000001 2.3500001
25.15 -0.050000001 2.45
25.15 -0.050000001 2.55
25.15 -0.050000001 2.6500001
25.15 -0.050000001 2.75
25.15 0.050000001 -0.050000001
25.15 0.050000001 0.050000001
25.15 0.050000001 0.15000001
25.15 0.050000001 0.25
25.15 0.050000001 0.34999999
25.15 0.050000001 0.45000002
25.15 0.050000001 0.55000001
25.15 0.050000001 0.65000004
25.15 0.050000001 0.75
25.15 0.050000001 0.85000002
25.15 0.050000001 1.25
25.15 0.050000001 1.35
25.15 0.050000001 1.45
25.15 0.050000001 1.5500001
25.15 0.050000001 1.65
25.15 0.050000001 2.75
25.15 0.050000001 2.8500001
25.15 0.050000001 2.95
25.15 0.050000001 3.05
25.15 0.15000001 2.8500001
25.15 0.15000001 2.95
25.15 0.15000001 3.05
25.15 0.15000001 3.1500001
25.15 0.15000001 3.25
25.15 0.15000001 3.3500001
25.15 0.25 3.25
25.15 0.25 3.3500001
25.15 0.25 3.45
25.15 0.34999999 3.3500001
25.15 0.34999999 3.45
25.15 0.34999999 3.55
25.15 0.45000002 3.3500001
25.15 0.45000002 3.45
25.15 0.55000001 3.45
25.15 0.65000004 3.45
25.15 0.65000004 3.55
25.15 0.75 3.45
25.15 0.75 3.55
25.15 0.85000002 3.45
25.15 0.85000002 3.55
25.15 0.94999999 3.3500001
25.15 0.94999999 3.45
25.15 0.94999999 3.55
25.15 1.0500001 3.3500001
25.15 1.0500001 3.45
25.15 1.15 3.3500001
25.15 1.15 3.45
25.15 1.25 3.3500001
25.15 1.25 3.45
25.15 1.35 3.25
25.15 1.35 3.3500001
25.15 1.45 3.25
25.15 1.45 3.3500001
25.15 1.5500001 3.25
25.15 1.5500001 3.3500001
25.15 1.5500001 3.45
25.15 1.65 3.45
25.15 1.75 3.45
25.15 1.85 3.25
25.15 1.85 3.3500001
25.15 1.85 3.45
25.15 1.95 3.1500001
25.15 1.95 3.25
25.15 1.95 3.3500001
25.15 2.05 3.05
25.15 2.05 3.1500001
25.15 2.05 3.25
25.15 2.05 3.3500001
25.15 2.1500001 -0.050000001
25.15 2.1500001 0.050000001
25.15 2.1500001 0.15000001
25.15 2.1500001 0.25
25.15 2.1500001 0.45000002
25.15 2.1500001 2.95
25.15 2.1500001 3.05
25.15 2.1500001 3.25
25.15 2.1500001 3.3500001
25.15 2.25 0.25
25.15 2.25 0.34999999
25.15 2.25 0.45000002
25.15 2.25 0.55000001
25.15 2.25 0.65000004
25.15 2.25 0.75
25.15 2.25 0.85000002
25.15 2.25 0.94999999
25.15 2.25 1.0500001
25.15 2.25 1.15
25.15 2.25 1.25
25.15 2.25 2.75
25.15 2.25 2.8500001
25.15 2.25 2.95
25.15 2.25 3.05
25.15 2.25 3.1500001
25.15 2.3500001 0.75
25.15 2.3500001 0.94999999
25.15 2.3500001 1.0500001
25.15 2.3500001 1.15
25.15 2.3500001 1.25
25.15 2.3500001 1.35
25.15 2.3500001 1.45
25.15 2.3500001 1.5500001
25.15 2.3500001 1.65
25.15 2.3500001 1.75
25.15 2.3500001 1.85
25.15 2.3500001 1.95
25.15 2.3500001 2.05
25.15 2.3500001 2.1500001
25.15 2.3500001 2.3500001
25.15 2.3500001 2.45
25.15 2.3500001 2.55
25.15 2.3500001 2.6500001
25.15 2.3500001 2.75
25.15 2.3500001 2.8500001
25.15 2.3500001 2.95
25.15 2.45 1.5500001
25.15 2.45 1.65
25.15 2.45 1.85
25.15 2.45 1.95
25.15 2.45 2.1500001
25.15 2.45 2.55
25.15 2.45 2.6500001
25.15 3.6500001 2.8500001
25.15 4.1500001 3.1500001
25.15 4.25 3.05
25.15 4.25 3.1500001
25.15 4.25 3.25
25.15 4.25 3.3500001
25.15 4.3499999 3.25
25.15 4.3499999 3.3500001
25.15 4.4500003 3.3500001
25.15 4.4500003 3.45
25.15 4.5500002 3.3500001
25.15 4.5500002 3.45
25.15 4.6500001 3.3500001
25.15 4.6500001 3.45
25.15 4.75 3.3500001
25.15 4.8499999 3.25
25.15 4.8499999 3.3500001
25.15 4.8499999 3.45
25.15 4.9500003 3.25
25.15 4.9500003 3.3500001
25.15 5.0500002 3.25
25.15 5.0500002 3.3500001
25.15 5.1500001 3.25
25.25 -3.75 1.25
25.25 -3.6500001 1.15
25.25 -3.6500001 3.75
25.25 -3.55 1.15
25.25 -3.45 1.0500001
25.25 -3.25 1.25
25.25 -3.25 1.35
25.25 -3.25 1.45
25.25 -3.1500001 1.0500001
25.25 -3.1500001 1.15
25.25 -3.1500001 1.25
25.25 -3.1500001 1.35
25.25 -3.1500001 1.45
25.25 -3.1500001 1.5500001
25.25 -3.05 1.15
25.25 -3.05 1.25
25.25 -3.05 1.35
25.25 -3.05 1.45
25.25 -3.05 1.5500001
25.25 -3.05 1.65
25.25 -3.05 1.75
25.25 -3.05 3.45
25.25 -2.95 1.35
25.25 -2.95 1.45
25.25 -2.95 1.5500001
25.25 -2.95 1.65
25.25 -2.95 3.45
25.25 -2.8500001 1.45
25.25 -2.8500001 1.5500001
25.25 -2.8500001 1.95
25.25 -2.8500001 3.45
25.25 -2.75 1.25
25.25 -2.75 1.35
25.25 -2.75 1.85
25.25 -2.75 3.45
25.25 -2.6500001 1.15
25.25 -2.6500001 1.25
25.25 -2.6500001 1.35
25.25 -2.6500001 1.85
25.25 -2.6500001 3.45
25.25 -2.55 1.15
25.25 -2.55 1.25
25.25 -2.55 1.35
25.25 -2.55 1.75
25.25 -2.55 3.45
25.25 -2.45 1.25
25.25 -2.45 1.35
25.25 -2.45 3.45
25.25 -2.3500001 1.25
25.25 -2.3500001 1.35
25.25 -2.3500001 3.05
25.25 -2.3500001 3.1500001
25.25 -2.3500001 3.25
25.25 -2.3500001 3.45
25.25 -2.25 1.35
25.25 -2.25 1.45
25.25 -2.25 2.95
25.25 -2.25 3.05
25.25 -2.25 3.1500001
25.25 -2.25 3.3500001
25.25 -2.1500001 1.25
25.25 -2.1500001 1.35
25.25 -2.1500001 2.8500001
25.25 -2.1500001 2.95
25.25 -2.1500001 3.3500001
25.25 -2.05 1.35
25.25 -2.05 2.8500001
25.25 -2.05 3.3500001
25.25 -1.95 1.35
25.25 -1.95 1.45
25.25 -1.95 2.8500001
25.25 -1.85 1.35
25.25 -1.85 1.45
25.25 -1.85 2.8500001
25.25 -1.75 1.35
25.25 -1.75 1.45
25.25 -1.75 1.5500001
25.25 -1.75 1.65
25.25 -1.75 2.75
25.25 -1.75 2.8500001
25.25 -1.75 2.95
25.25 -1.65 1.35
25.25 -1.65 1.45
25.25 -1.65 1.5500001
25.25 -1.65 2.1500001
25.25 -1.65 2.75
25.25 -1.65 2.8500001
25.25 -1.65 2.95
25.25 -1.5500001 1.35
25.25 -1.5500001 1.45
25.25 -1.5500001 1.5500001
25.25 -1.5500001 1.65
25.25 -1.5500001 2.05
25.25 -1.5500001 2.25
25.25 -1.5500001 2.8500001
25.25 -1.5500001 2.95
25.25 -1.5500001 3.05
25.25 -1.45 1.5500001
25.25 -1.45 1.65
25.25 -1.45 3.05
25.25 -1.45 3.1500001
25.25 -1.45 3.25
25.25 -1.45 3.3500001
25.25 -1.35 1.65
25.25 -1.35 1.75
25.25 -1.35 1.85
25.25 -1.35 1.95
25.25 -1.35 2.95
25.25 -1.35 3.25
25.25 -1.25 2.3500001
25.25 -1.25 2.75
25.25 -1.25 2.8500001
25.25 -1.15 2.75
25.25 -0.050000001 -0.25
25.25 -0.050000001 -0.15000001
25.25 -0.050000001 -0.050000001
25.25 -0.050000001 0.050000001
25.25 -0.050000001 0.45000002
25.25 -0.050000001 0.85000002
25.25 -0.050000001 1.15
25.25 -0.050000001 1.25
25.25 -0.050000001 1.35
25.25 -0.050000001 1.45
25.25 -0.050000001 1.5500001
25.25 -0.050000001 1.65
25.25 -0.050000001 1.75
25.25 -0.050000001 2.55
25.25 -0.050000001 2.6500001
25.25 -0.050000001 2.75
25.25 0.050000001 0.050000001
25.25 0.050000001 0.15000001
25.25 0.050000001 0.25
25.25 0.050000001 0.34999999
25.25 0.050000001 0.45000002
25.25 0.050000001 0.55000001
25.25 0.050000001 0.65000004
25.25 0.050000001 0.75
25.25 0.050000001 0.85000002
25.25 0.050000001 1.25
25.25 0.050000001 1.35
25.25 0.050000001 1.45
25.25 0.050000001 1.5500001
25.25 0.050000001 1.65
25.25 0.050000001 2.75
25.25 0.050000001 2.8500001
25.25 0.050000001 2.95
25.25 0.15000001 2.8500001
25.25 0.15000001 2.95
25.25 0.15000001 3.05
25.25 0.15000001 3.1500001
25.25 0.15000001 3.25
25.25 0.15000001 3.3500001
25.25 0.25 3.25
25.25 0.25 3.3500001
25.25 0.25 3.45
25.25 0.34999999 3.3500001
25.25 0.34999999 3.45
25.25 0.34999999 3.55
25.25 0.45000002 3.3500001
25.25 0.45000002 3.45
25.25 0.55000001 3.45
25.25 0.55000001 3.55
25.25 0.55000001 3.6500001
25.25 0.65000004 3.55
25.25 0.65000004 3.6500001
25.25 0.75 3.45
25.25 0.75 3.55
25.25 0.85000002 3.45
25.25 0.85000002 3.55
25.25 0.94999999 3.3500001
25.25 0.94999999 3.45
25.25 0.94999999 3.55
25.25 1.0500001 3.3500001
25.25 1.0500001 3.45
25.25 1.15 3.3500001
25.25 1.15 3.45
25.25 1.25 3.3500001
25.25 1.25 3.45
25.25 1.35 3.25
25.25 1.35 3.3500001
25.25 1.45 3.25
25.25 1.45 3.3500001
25.25 1.5500001 3.25
25.25 1.5500001 3.45
25.25 1.65 3.45
25.25 1.75 3.25
25.25 1.75 3.45
25.25 1.85 3.25
25.25 1.85 3.3500001
25.25 1.85 3.45
25.25 1.95 3.1500001
25.25 1.95 3.25
25.25 1.95 3.3500001
25.25 2.05 3.05
25.25 2.05 3.1500001
25.25 2.05 3.3500001
25.25 2.1500001 -0.050000001
25.25 2.1500001 0.050000001
25.25 2.1500001 0.15000001
25.25 2.1500001 0.25
25.25 2.1500001 0.34999999
25.25 2.1500001 0.45000002
25.25 2.1500001 0.65000004
25.25 2.1500001 0.75
25.25 2.1500001 2.95
25.25 2.1500001 3.05
25.25 2.1500001 3.25
25.25 2.1500001 3.3500001
25.25 2.25 0.25
25.25 2.25 0.34999999
25.25 2.25 0.45000002
25.25 2.25 0.55000001
25.25 2.25 0.65000004
25.25 2.25 0.75
25.25 2.25 0.85000002
25.25 2.25 0.94999999
25.25 2.25 1.0500001
25.25 2.25 1.15
25.25 2.25 1.25
25.25 2.25 2.8500001
25.25 2.25 2.95
25.25 2.25 3.05
25.25 2.25 3.1500001
25.25 2.3500001 0.75
25.25 2.3500001 0.85000002
25.25 2.3500001 0.94999999
25.25 2.3500001 1.0500001
25.25 2.3500001 1.15
25.25 2.3500001 1.25
25.25 2.3500001 1.35
25.25 2.3500001 1.45
25.25 2.3500001 1.5500001
25.25 2.3500001 1.65
25.25 2.3500001 1.75
25.25 2.3500001 1.95
25.25 2.3500001 2.3500001
25.25 2.3500001 2.55
25.25 2.3500001 2.6500001
25.25 2.3500001 2.75
25.25 2.3500001 2.8500001
25.25 2.3500001 2.95
25.25 2.3500001 3.05
25.25 2.45 1.45
25.25 2.45 1.5500001
25.25 2.45 1.75
25.25 2.45 1.85
25.25 2.45 1.95
25.25 2.45 2.05
25.25 2.45 2.1500001
25.25 2.45 2.25
25.25 2.45 2.3500001
25.25 2.45 2.45
25.25 2.45 2.55
25.25 2.45 2.6500001
25.25 2.45 2.75
25.25 3.75 2.8500001
25.25 4.25 3.05
25.25 4.25 3.1500001
25.25 4.25 3.25
25.25 4.3499999 3.05
25.25 4.3499999 3.1500001
25.25 4.3499999 3.25
25.25 4.3499999 3.3500001
25.25 4.4500003 3.25
25.25 4.4500003 3.3500001
25.25 4.5500002 3.3500001
25.25 4.5500002 3.45
25.25 4.6500001 3.3500001
25.25 4.75 3.3500001
25.25 4.75 3.45
25.25 4.8499999 3.3500001
25.25 4.9500003 3.25
25.25 4.9500003 3.3500001
25.25 4.9500003 3.45
25.25 5.0500002 3.3500001
25.25 5.1500001 3.25
25.25 5.1500001 3.3500001
25.35 -3.95 1.45
25.35 -3.95 3.75
25.35 -3.8500001 1.35
25.35 -3.8500001 3.75
25.35 -3.75 1.25
25.35 -3.75 3.75
25.35 -3.6500001 1.15
25.35 -3.6500001 1.25
25.35 -3.6500001 3.75
25.35 -3.55 1.15
25.35 -3.55 1.35
25.35 -3.45 1.35
25.35 -3.45 1.5500001
25.35 -3.3500001 1.15
25.35 -3.3500001 1.25
25.35 -3.3500001 1.35
25.35 -3.3500001 1.45
25.35 -3.3500001 1.5500001
25.35 -3.25 1.15
25.35 -3.25 1.25
25.35 -3.25 1.35
25.35 -3.25 1.45
25.35 -3.25 1.5500001
25.35 -3.25 1.65
25.35 -3.25 1.75
25.35 -3.25 1.85
25.35 -3.25 3.45
25.35 -3.1500001 1.45
25.35 -3.1500001 1.5500001
25.35 -3.1500001 1.65
25.35 -3.1500001 1.75
25.35 -3.1500001 1.85
25.35 -3.1500001 3.3500001
25.35 -3.1500001 3.45
25.35 -3.05 1.65
25.35 -3.05 1.75
25.35 -3.05 1.85
25.35 -3.05 3.45
25.35 -2.95 1.5500001
25.35 -2.95 1.75
25.35 -2.95 1.85
25.35 -2.95 3.45
25.35 -2.8500001 1.85
25.35 -2.8500001 1.95
25.35 -2.8500001 3.45
25.35 -2.75 1.45
25.35 -2.75 1.85
25.35 -2.75 3.45
25.35 -2.6500001 1.35
25.35 -2.6500001 1.45
25.35 -2.6500001 1.85
25.35 -2.6500001 3.45
25.35 -2.55 1.35
25.35 -2.55 1.75
25.35 -2.55 1.85
25.35 -2.55 3.45
25.35 -2.45 1.35
25.35 -2.45 1.45
25.35 -2.45 1.65
25.35 -2.45 3.1500001
25.35 -2.45 3.25
25.35 -2.45 3.45
25.35 -2.3500001 1.35
25.35 -2.3500001 1.45
25.35 -2.3500001 1.5500001
25.35 -2.3500001 2.95
25.35 -2.3500001 3.05
25.35 -2.3500001 3.1500001
25.35 -2.3500001 3.3500001
25.35 -2.3500001 3.45
25.35 -2.25 1.35
25.35 -2.25 1.45
25.35 -2.25 2.95
25.35 -2.25 3.05
25.35 -2.1500001 1.35
25.35 -2.1500001 1.45
25.35 -2.1500001 2.8500001
25.35 -2.1500001 3.3500001
25.35 -2.05 1.35
25.35 -2.05 1.45
25.35 -2.05 2.8500001
25.35 -1.95 1.35
25.35 -1.95 1.45
25.35 -1.95 2.8500001
25.35 -1.85 1.35
25.35 -1.85 1.45
25.35 -1.85 2.8500001
25.35 -1.85 2.95
25.35 -1.75 1.35
25.35 -1.75 1.45
25.35 -1.75 1.5500001
25.35 -1.75 2.6500001
25.35 -1.75 2.75
25.35 -1.75 2.8500001
25.35 -1.75 2.95
25.35 -1.65 1.35
25.35 -1.65 1.45
