# .PCD v0.7 - Point Cloud Data file format
VERSION 0.7
FIELDS x y z
SIZE 4 4 4
TYPE F F F
COUNT 1 1 1
WIDTH 2100
HEIGHT 1
VIEWPOINT 0 0 0 1 0 0 0
POINTS 2100
DATA ascii
23.35 0.94999999 3.6500001
23.35 1.0500001 3.3500001
23.35 1.0500001 3.45
23.35 1.0500001 3.55
23.35 1.0500001 3.6500001
23.35 1.0500001 3.75
23.35 1.15 3.45
23.35 1.15 3.6500001
23.35 1.25 3.45
23.35 1.35 3.3500001
23.35 1.35 3.75
23.35 1.45 3.25
23.35 1.45 3.3500001
23.35 1.45 3.45
23.35 1.45 3.55
23.35 1.45 3.6500001
23.35 1.45 3.75
23.35 1.5500001 3.25
23.35 1.5500001 3.3500001
23.35 1.5500001 3.45
23.35 1.5500001 3.55
23.35 1.5500001 3.6500001
23.35 1.5500001 3.75
23.35 1.65 3.25
23.35 1.65 3.3500001
23.35 1.75 3.25
23.35 1.75 3.3500001
23.35 1.75 3.45
23.35 1.85 3.25
23.35 1.85 3.3500001
23.35 1.85 3.45
23.35 1.95 3.1500001
23.35 1.95 3.25
23.35 1.95 3.3500001
23.35 2.05 0.45000002
23.35 2.05 0.55000001
23.35 2.05 0.65000004
23.35 2.05 0.75
23.35 2.05 0.85000002
23.35 2.05 0.94999999
23.35 2.05 3.05
23.35 2.05 3.1500001
23.35 2.05 3.25
23.35 2.05 3.3500001
23.35 2.05 3.45
23.35 2.05 3.55
23.35 2.1500001 0.050000001
23.35 2.1500001 0.15000001
23.35 2.1500001 0.25
23.35 2.1500001 0.34999999
23.35 2.1500001 0.45000002
23.35 2.1500001 0.55000001
23.35 2.1500001 0.65000004
23.35 2.1500001 0.75
23.35 2.1500001 0.85000002
23.35 2.1500001 0.94999999
23.35 2.1500001 1.0500001
23.35 2.1500001 2.95
23.35 2.1500001 3.05
23.35 2.1500001 3.1500001
23.35 2.1500001 3.25
23.35 2.25 -0.050000001
23.35 2.25 0.94999999
23.35 2.25 1.0500001
23.35 2.25 1.15
23.35 2.25 2.6500001
23.35 2.25 2.75
23.35 2.25 2.8500001
23.35 2.25 2.95
23.35 2.25 3.05
23.35 2.25 3.1500001
23.35 2.3500001 1.15
23.35 2.3500001 1.25
23.35 2.3500001 1.35
23.35 2.3500001 1.45
23.35 2.3500001 1.75
23.35 2.3500001 1.85
23.35 2.3500001 1.95
23.35 2.3500001 2.1500001
23.35 2.3500001 2.25
23.35 2.3500001 2.3500001
23.35 2.3500001 2.45
23.35 2.3500001 2.55
23.35 2.3500001 2.6500001
23.35 2.3500001 2.75
23.35 2.3500001 2.8500001
23.35 2.3500001 2.95
23.35 2.3500001 3.05
23.35 2.3500001 3.1500001
23.35 2.45 1.25
23.35 2.45 1.35
23.35 2.45 1.45
23.35 2.45 1.5500001
23.35 2.45 1.65
23.35 2.45 1.75
23.35 2.45 1.85
23.35 2.45 1.95
23.35 2.45 2.05
23.35 2.45 2.1500001
23.35 2.45 2.25
23.35 2.45 2.3500001
23.35 2.45 2.6500001
23.35 2.45 2.75
23.35 2.45 2.8500001
23.35 2.55 1.35
23.35 2.55 1.45
23.35 2.55 1.5500001
23.35 2.55 1.65
23.35 2.55 1.75
23.35 2.55 1.85
23.35 2.55 2.05
23.35 2.6500001 1.25
23.35 2.6500001 1.35
23.35 2.6500001 1.45
23.35 2.6500001 1.5500001
23.35 2.6500001 1.65
23.35 2.6500001 1.75
23.35 2.75 1.25
23.35 2.75 1.35
23.35 2.75 1.45
23.35 2.75 1.75
23.35 2.75 1.85
23.35 2.75 1.95
23.35 2.8500001 1.35
23.35 2.8500001 1.45
23.35 2.8500001 1.5500001
23.35 2.8500001 1.65
23.35 2.8500001 1.75
23.35 2.8500001 1.85
23.35 2.8500001 1.95
23.35 2.8500001 2.05
23.35 2.8500001 2.1500001
23.35 2.8500001 2.25
23.35 2.8500001 2.3500001
23.35 2.8500001 2.45
23.35 2.8500001 2.55
23.35 2.8500001 2.6500001
23.35 2.8500001 2.75
23.35 2.8500001 2.8500001
23.35 2.95 1.25
23.35 2.95 1.35
23.35 2.95 1.5500001
23.35 2.95 1.65
23.35 2.95 1.75
23.35 2.95 1.85
23.35 2.95 1.95
23.35 2.95 2.05
23.35 2.95 2.1500001
23.35 2.95 2.25
23.35 2.95 2.3500001
23.35 2.95 2.45
23.35 2.95 2.55
23.35 2.95 2.6500001
23.35 2.95 2.75
23.35 2.95 2.8500001
23.35 2.95 2.95
23.35 2.95 3.05
23.35 2.95 3.1500001
23.35 3.05 1.15
23.35 3.05 1.35
23.35 3.05 1.45
23.35 3.05 1.5500001
23.35 3.05 1.65
23.35 3.05 1.75
23.35 3.05 1.85
23.35 3.05 1.95
23.35 3.05 2.05
23.35 3.05 2.1500001
23.35 3.05 2.25
23.35 3.05 2.6500001
23.35 3.05 2.8500001
23.35 3.05 2.95
23.35 3.05 3.05
23.35 3.05 3.1500001
23.35 3.1500001 1.15
23.35 3.1500001 1.25
23.35 3.1500001 1.35
23.35 3.1500001 1.45
23.35 3.1500001 1.5500001
23.35 3.1500001 1.65
23.35 3.1500001 1.75
23.35 3.1500001 1.85
23.35 3.1500001 1.95
23.35 3.1500001 3.1500001
23.35 3.1500001 3.25
23.35 3.1500001 3.3500001
23.35 3.25 1.25
23.35 3.25 1.35
23.35 3.25 1.45
23.35 3.25 1.5500001
23.35 3.25 1.65
23.35 3.25 1.75
23.35 3.25 1.85
23.35 3.25 1.95
23.35 3.25 2.05
23.35 3.25 3.1500001
23.35 3.25 3.25
23.35 3.25 3.3500001
23.35 3.3500001 1.35
23.35 3.3500001 1.45
23.35 3.3500001 1.5500001
23.35 3.3500001 1.65
23.35 3.3500001 1.75
23.35 3.3500001 1.85
23.35 3.3500001 1.95
23.35 3.3500001 2.05
23.35 3.3500001 2.1500001
23.35 3.3500001 3.25
23.35 3.3500001 3.45
23.35 3.3500001 3.55
23.35 3.45 1.0500001
23.35 3.45 1.25
23.35 3.45 1.35
23.35 3.45 1.45
23.35 3.45 1.5500001
23.35 3.45 1.85
23.35 3.45 2.05
23.35 3.45 2.1500001
23.35 3.45 3.25
23.35 3.45 3.3500001
23.35 3.45 3.45
23.35 3.55 1.65
23.35 3.55 1.85
23.35 3.55 2.1500001
23.35 3.75 3.3500001
23.35 3.8500001 3.1500001
23.35 3.8500001 3.3500001
23.35 4.1500001 3.45
23.35 4.25 3.45
23.35 4.25 3.55
23.35 4.3499999 3.55
23.450001 -2.05 1.0500001
23.450001 -1.75 0.94999999
23.450001 -1.75 1.0500001
23.450001 -1.75 3.6500001
23.450001 -1.65 0.94999999
23.450001 -1.65 1.0500001
23.450001 -1.65 3.55
23.450001 -1.5500001 3.45
23.450001 -1.5500001 3.55
23.450001 -1.45 3.45
23.450001 -1.45 3.55
23.450001 -1.35 3.45
23.450001 -1.35 3.55
23.450001 -1.25 3.3500001
23.450001 -1.25 3.45
23.450001 -1.25 3.55
23.450001 -1.15 3.3500001
23.450001 -1.15 3.45
23.450001 -1.0500001 3.25
23.450001 -1.0500001 3.3500001
23.450001 -1.0500001 3.45
23.450001 -0.94999999 3.1500001
23.450001 -0.94999999 3.25
23.450001 -0.94999999 3.3500001
23.450001 -0.85000002 2.8500001
23.450001 -0.85000002 2.95
23.450001 -0.85000002 3.05
23.450001 -0.85000002 3.1500001
23.450001 -0.85000002 3.25
23.450001 -0.75 1.0500001
23.450001 -0.75 2.6500001
23.450001 -0.75 2.75
23.450001 -0.75 2.8500001
23.450001 -0.75 2.95
23.450001 -0.75 3.05
23.450001 -0.75 3.1500001
23.450001 -0.65000004 2.45
23.450001 -0.65000004 2.55
23.450001 -0.65000004 2.6500001
23.450001 -0.65000004 2.75
23.450001 -0.65000004 2.95
23.450001 -0.65000004 3.05
23.450001 -0.65000004 3.1500001
23.450001 -0.55000001 2.3500001
23.450001 -0.55000001 2.45
23.450001 -0.55000001 2.8500001
23.450001 -0.55000001 2.95
23.450001 -0.55000001 3.05
23.450001 -0.45000002 1.95
23.450001 -0.45000002 2.25
23.450001 -0.45000002 2.75
23.450001 -0.45000002 2.8500001
23.450001 -0.45000002 2.95
23.450001 -0.34999999 1.45
23.450001 -0.34999999 1.65
23.450001 -0.34999999 1.75
23.450001 -0.34999999 1.85
23.450001 -0.34999999 1.95
23.450001 -0.34999999 2.05
23.450001 -0.34999999 2.25
23.450001 -0.34999999 2.3500001
23.450001 -0.34999999 2.45
23.450001 -0.25 1.65
23.450001 -0.25 1.75
23.450001 -0.25 1.85
23.450001 -0.25 1.95
23.450001 -0.25 2.05
23.450001 -0.25 2.1500001
23.450001 -0.25 2.25
23.450001 -0.15000001 1.75
23.450001 -0.15000001 1.85
23.450001 -0.15000001 1.95
23.450001 -0.15000001 2.05
23.450001 -0.15000001 2.1500001
23.450001 -0.050000001 0.55000001
23.450001 -0.050000001 0.65000004
23.450001 -0.050000001 0.75
23.450001 -0.050000001 0.85000002
23.450001 -0.050000001 1.35
23.450001 -0.050000001 1.75
23.450001 -0.050000001 1.85
23.450001 -0.050000001 1.95
23.450001 -0.050000001 2.6500001
23.450001 -0.050000001 2.75
23.450001 -0.050000001 2.8500001
23.450001 -0.050000001 2.95
23.450001 -0.050000001 3.95
23.450001 0.050000001 0.34999999
23.450001 0.050000001 0.45000002
23.450001 0.050000001 0.55000001
23.450001 0.050000001 0.65000004
23.450001 0.050000001 0.85000002
23.450001 0.050000001 0.94999999
23.450001 0.050000001 1.0500001
23.450001 0.050000001 1.15
23.450001 0.050000001 1.25
23.450001 0.050000001 1.35
23.450001 0.050000001 1.45
23.450001 0.050000001 1.5500001
23.450001 0.050000001 1.65
23.450001 0.050000001 1.75
23.450001 0.050000001 1.85
23.450001 0.050000001 1.95
23.450001 0.050000001 2.05
23.450001 0.050000001 2.1500001
23.450001 0.050000001 2.25
23.450001 0.050000001 2.3500001
23.450001 0.050000001 2.45
23.450001 0.050000001 2.55
23.450001 0.050000001 2.6500001
23.450001 0.050000001 2.75
23.450001 0.050000001 2.8500001
23.450001 0.050000001 2.95
23.450001 0.050000001 3.05
23.450001 0.050000001 3.1500001
23.450001 0.15000001 -0.15000001
23.450001 0.15000001 -0.050000001
23.450001 0.15000001 0.050000001
23.450001 0.15000001 0.15000001
23.450001 0.15000001 0.25
23.450001 0.15000001 0.34999999
23.450001 0.15000001 0.45000002
23.450001 0.15000001 0.55000001
23.450001 0.15000001 0.65000004
23.450001 0.15000001 0.75
23.450001 0.15000001 0.85000002
23.450001 0.15000001 0.94999999
23.450001 0.15000001 1.0500001
23.450001 0.15000001 1.15
23.450001 0.15000001 1.25
23.450001 0.15000001 1.35
23.450001 0.15000001 1.45
23.450001 0.15000001 1.5500001
23.450001 0.15000001 1.65
23.450001 0.15000001 1.75
23.450001 0.15000001 2.95
23.450001 0.15000001 3.05
23.450001 0.15000001 3.1500001
23.450001 0.15000001 3.25
23.450001 0.15000001 3.6500001
23.450001 0.25 3.25
23.450001 0.25 3.3500001
23.450001 0.25 3.45
23.450001 0.25 3.55
23.450001 0.25 3.6500001
23.450001 0.34999999 3.3500001
23.450001 0.34999999 3.45
23.450001 0.34999999 3.6500001
23.450001 0.34999999 3.75
23.450001 0.34999999 3.8500001
23.450001 0.34999999 3.95
23.450001 0.45000002 3.3500001
23.450001 0.45000002 3.75
23.450001 0.55000001 3.3500001
23.450001 0.55000001 3.6500001
23.450001 0.65000004 3.3500001
23.450001 0.65000004 3.45
23.450001 0.65000004 3.8500001
23.450001 0.65000004 3.95
23.450001 0.65000004 4.0500002
23.450001 0.65000004 4.1500001
23.450001 0.65000004 4.25
23.450001 0.75 3.3500001
23.450001 0.75 3.45
23.450001 0.75 3.55
23.450001 0.75 3.6500001
23.450001 0.75 3.75
23.450001 0.75 3.8500001
23.450001 0.75 4.25
23.450001 0.75 4.3499999
23.450001 0.85000002 3.3500001
23.450001 0.85000002 3.45
23.450001 0.85000002 3.55
23.450001 0.85000002 3.6500001
23.450001 0.85000002 3.8500001
23.450001 0.94999999 3.25
23.450001 0.94999999 3.3500001
23.450001 0.94999999 3.45
23.450001 0.94999999 3.55
23.450001 0.94999999 3.6500001
23.450001 1.0500001 3.3500001
23.450001 1.0500001 3.45
23.450001 1.0500001 3.6500001
23.450001 1.15 3.45
23.450001 1.15 3.6500001
23.450001 1.15 3.75
23.450001 1.15 3.8500001
23.450001 1.25 3.6500001
23.450001 1.25 3.8500001
23.450001 1.35 3.6500001
23.450001 1.45 3.25
23.450001 1.45 3.3500001
23.450001 1.45 3.45
23.450001 1.45 3.55
23.450001 1.45 3.6500001
23.450001 1.45 3.8500001
23.450001 1.5500001 3.25
23.450001 1.5500001 3.3500001
23.450001 1.5500001 3.45
23.450001 1.5500001 3.6500001
23.450001 1.5500001 3.75
23.450001 1.5500001 3.8500001
23.450001 1.65 3.25
23.450001 1.65 3.3500001
23.450001 1.75 3.25
23.450001 1.75 3.3500001
23.450001 1.75 3.45
23.450001 1.85 3.25
23.450001 1.85 3.3500001
23.450001 1.85 3.45
23.450001 1.95 3.25
23.450001 1.95 3.3500001
23.450001 1.95 3.45
23.450001 1.95 3.55
23.450001 2.05 0.45000002
23.450001 2.05 0.55000001
23.450001 2.05 0.65000004
23.450001 2.05 0.75
23.450001 2.05 0.85000002
23.450001 2.05 0.94999999
23.450001 2.05 3.05
23.450001 2.05 3.1500001
23.450001 2.05 3.25
23.450001 2.05 3.3500001
23.450001 2.05 3.45
23.450001 2.05 3.55
23.450001 2.1500001 0.15000001
23.450001 2.1500001 0.25
23.450001 2.1500001 0.34999999
23.450001 2.1500001 0.45000002
23.450001 2.1500001 0.85000002
23.450001 2.1500001 0.94999999
23.450001 2.1500001 1.0500001
23.450001 2.1500001 2.95
23.450001 2.1500001 3.05
23.450001 2.1500001 3.1500001
23.450001 2.1500001 3.25
23.450001 2.25 0.050000001
23.450001 2.25 0.94999999
23.450001 2.25 1.0500001
23.450001 2.25 1.15
23.450001 2.25 2.6500001
23.450001 2.25 2.75
23.450001 2.25 2.8500001
23.450001 2.25 2.95
23.450001 2.25 3.05
23.450001 2.25 3.1500001
23.450001 2.25 3.25
23.450001 2.3500001 1.0500001
23.450001 2.3500001 1.15
23.450001 2.3500001 1.25
23.450001 2.3500001 1.35
23.450001 2.3500001 1.45
23.450001 2.3500001 1.5500001
23.450001 2.3500001 1.65
23.450001 2.3500001 1.75
23.450001 2.3500001 1.85
23.450001 2.3500001 1.95
23.450001 2.3500001 2.05
23.450001 2.3500001 2.1500001
23.450001 2.3500001 2.25
23.450001 2.3500001 2.3500001
23.450001 2.3500001 2.45
23.450001 2.3500001 2.55
23.450001 2.3500001 2.6500001
23.450001 2.3500001 2.75
23.450001 2.3500001 2.8500001
23.450001 2.3500001 2.95
23.450001 2.3500001 3.05
23.450001 2.3500001 3.1500001
23.450001 2.45 1.35
23.450001 2.45 1.45
23.450001 2.45 1.5500001
23.450001 2.45 1.65
23.450001 2.45 1.75
23.450001 2.45 1.85
23.450001 2.45 1.95
23.450001 2.45 2.05
23.450001 2.45 2.1500001
23.450001 2.45 2.25
23.450001 2.45 2.3500001
23.450001 2.45 2.45
23.450001 2.45 2.55
23.450001 2.45 2.6500001
23.450001 2.45 2.75
23.450001 2.45 2.8500001
23.450001 2.55 2.05
23.450001 2.6500001 1.35
23.450001 2.6500001 1.45
23.450001 2.6500001 1.5500001
23.450001 2.6500001 1.65
23.450001 2.75 1.35
23.450001 2.75 1.45
23.450001 2.75 1.5500001
23.450001 2.75 1.65
23.450001 2.75 1.75
23.450001 2.8500001 1.35
23.450001 2.8500001 1.45
23.450001 2.8500001 1.5500001
23.450001 2.8500001 1.65
23.450001 2.8500001 1.75
23.450001 2.8500001 1.85
23.450001 2.8500001 1.95
23.450001 2.8500001 2.05
23.450001 2.8500001 2.1500001
23.450001 2.8500001 2.55
23.450001 2.95 1.25
23.450001 2.95 1.35
23.450001 2.95 1.45
23.450001 2.95 1.5500001
23.450001 2.95 1.65
23.450001 2.95 1.75
23.450001 2.95 1.85
23.450001 2.95 1.95
23.450001 2.95 2.05
23.450001 2.95 2.1500001
23.450001 2.95 2.25
23.450001 2.95 2.3500001
23.450001 2.95 2.45
23.450001 2.95 2.55
23.450001 2.95 2.6500001
23.450001 2.95 2.75
23.450001 2.95 2.8500001
23.450001 2.95 2.95
23.450001 3.05 1.15
23.450001 3.05 1.25
23.450001 3.05 1.35
23.450001 3.05 1.45
23.450001 3.05 1.5500001
23.450001 3.05 1.65
23.450001 3.05 1.85
23.450001 3.05 2.05
23.450001 3.05 2.3500001
23.450001 3.05 2.45
23.450001 3.05 2.55
23.450001 3.05 2.6500001
23.450001 3.05 2.75
23.450001 3.05 2.8500001
23.450001 3.05 2.95
23.450001 3.05 3.05
23.450001 3.05 3.1500001
23.450001 3.1500001 1.15
23.450001 3.1500001 1.25
23.450001 3.1500001 1.35
23.450001 3.1500001 1.45
23.450001 3.1500001 1.5500001
23.450001 3.1500001 1.65
23.450001 3.1500001 1.75
23.450001 3.1500001 1.85
23.450001 3.1500001 1.95
23.450001 3.1500001 2.05
23.450001 3.1500001 2.1500001
23.450001 3.1500001 3.05
23.450001 3.1500001 3.1500001
23.450001 3.1500001 3.25
23.450001 3.25 1.15
23.450001 3.25 1.25
23.450001 3.25 1.35
23.450001 3.25 1.45
23.450001 3.25 1.5500001
23.450001 3.25 1.65
23.450001 3.25 1.75
23.450001 3.25 1.85
23.450001 3.25 1.95
23.450001 3.25 2.05
23.450001 3.25 2.1500001
23.450001 3.25 3.1500001
23.450001 3.25 3.25
23.450001 3.25 3.3500001
23.450001 3.3500001 1.85
23.450001 3.3500001 1.95
23.450001 3.3500001 2.05
23.450001 3.3500001 2.1500001
23.450001 3.3500001 3.25
23.450001 3.3500001 3.3500001
23.450001 3.45 1.35
23.450001 3.45 1.45
23.450001 3.45 1.5500001
23.450001 3.45 1.85
23.450001 3.45 1.95
23.450001 3.45 2.05
23.450001 3.45 2.1500001
23.450001 3.45 3.25
23.450001 3.45 3.3500001
23.450001 3.45 3.45
23.450001 3.45 3.55
23.450001 3.55 1.0500001
23.450001 3.55 1.45
23.450001 3.55 1.5500001
23.450001 3.55 1.85
23.450001 3.55 1.95
23.450001 3.55 3.25
23.450001 3.55 3.3500001
23.450001 3.55 3.45
23.450001 3.6500001 1.85
23.450001 3.6500001 1.95
23.450001 3.6500001 3.25
23.450001 3.75 3.25
23.450001 3.8500001 3.25
23.450001 3.8500001 3.3500001
23.450001 3.95 3.25
23.450001 4.25 3.55
23.450001 4.3499999 3.55
23.450001 4.4500003 3.55
23.550001 -1.85 3.6500001
23.550001 -1.75 0.94999999
23.550001 -1.75 1.0500001
23.550001 -1.75 3.6500001
23.550001 -1.65 0.94999999
23.550001 -1.65 3.55
23.550001 -1.65 3.6500001
23.550001 -1.5500001 3.45
23.550001 -1.5500001 3.55
23.550001 -1.45 3.45
23.550001 -1.45 3.55
23.550001 -1.35 3.45
23.550001 -1.35 3.55
23.550001 -1.25 3.45
23.550001 -1.25 3.55
23.550001 -1.15 3.25
23.550001 -1.15 3.3500001
23.550001 -1.15 3.45
23.550001 -1.0500001 3.1500001
23.550001 -1.0500001 3.25
23.550001 -1.0500001 3.3500001
23.550001 -0.94999999 3.05
23.550001 -0.94999999 3.1500001
23.550001 -0.94999999 3.25
23.550001 -0.85000002 2.75
23.550001 -0.85000002 2.8500001
23.550001 -0.85000002 2.95
23.550001 -0.85000002 3.05
23.550001 -0.85000002 3.1500001
23.550001 -0.75 2.45
23.550001 -0.75 2.55
23.550001 -0.75 2.6500001
23.550001 -0.75 2.75
23.550001 -0.75 2.8500001
23.550001 -0.75 2.95
23.550001 -0.75 3.05
23.550001 -0.75 3.1500001
23.550001 -0.65000004 2.1500001
23.550001 -0.65000004 2.25
23.550001 -0.65000004 2.3500001
23.550001 -0.65000004 2.45
23.550001 -0.65000004 2.8500001
23.550001 -0.65000004 2.95
23.550001 -0.65000004 3.05
23.550001 -0.55000001 2.05
23.550001 -0.55000001 2.25
23.550001 -0.55000001 2.3500001
23.550001 -0.55000001 2.8500001
23.550001 -0.55000001 2.95
23.550001 -0.55000001 3.05
23.550001 -0.45000002 2.25
23.550001 -0.45000002 2.75
23.550001 -0.45000002 2.8500001
23.550001 -0.45000002 2.95
23.550001 -0.34999999 1.35
23.550001 -0.34999999 1.45
23.550001 -0.34999999 1.65
23.550001 -0.34999999 1.75
23.550001 -0.34999999 1.95
23.550001 -0.34999999 2.05
23.550001 -0.34999999 2.1500001
23.550001 -0.34999999 2.25
23.550001 -0.34999999 2.3500001
23.550001 -0.25 1.75
23.550001 -0.25 1.85
23.550001 -0.25 1.95
23.550001 -0.25 2.05
23.550001 -0.25 2.1500001
23.550001 -0.050000001 0.55000001
23.550001 -0.050000001 0.65000004
23.550001 -0.050000001 0.75
23.550001 -0.050000001 1.85
23.550001 -0.050000001 1.95
23.550001 -0.050000001 2.75
23.550001 -0.050000001 2.8500001
23.550001 -0.050000001 2.95
23.550001 -0.050000001 3.05
23.550001 -0.050000001 4.0500002
23.550001 0.050000001 0.25
23.550001 0.050000001 0.34999999
23.550001 0.050000001 0.45000002
23.550001 0.050000001 0.55000001
23.550001 0.050000001 0.65000004
23.550001 0.050000001 0.75
23.550001 0.050000001 0.85000002
23.550001 0.050000001 0.94999999
23.550001 0.050000001 1.0500001
23.550001 0.050000001 1.15
23.550001 0.050000001 1.25
23.550001 0.050000001 1.35
23.550001 0.050000001 1.45
23.550001 0.050000001 1.5500001
23.550001 0.050000001 1.65
23.550001 0.050000001 1.75
23.550001 0.050000001 1.85
23.550001 0.050000001 1.95
23.550001 0.050000001 2.05
23.550001 0.050000001 2.1500001
23.550001 0.050000001 2.25
23.550001 0.050000001 2.3500001
23.550001 0.050000001 2.45
23.550001 0.050000001 2.55
23.550001 0.050000001 2.6500001
23.550001 0.050000001 2.75
23.550001 0.050000001 2.8500001
23.550001 0.050000001 2.95
23.550001 0.050000001 3.05
23.550001 0.050000001 3.1500001
23.550001 0.15000001 -0.15000001
23.550001 0.15000001 -0.050000001
23.550001 0.15000001 0.050000001
23.550001 0.15000001 0.15000001
23.550001 0.15000001 0.25
23.550001 0.15000001 0.34999999
23.550001 0.15000001 0.45000002
23.550001 0.15000001 0.55000001
23.550001 0.15000001 0.65000004
23.550001 0.15000001 1.0500001
23.550001 0.15000001 1.25
23.550001 0.15000001 2.95
23.550001 0.15000001 3.05
23.550001 0.15000001 3.1500001
23.550001 0.15000001 3.25
23.550001 0.15000001 3.6500001
23.550001 0.15000001 3.75
23.550001 0.25 3.25
23.550001 0.25 3.3500001
23.550001 0.25 3.45
23.550001 0.25 3.55
23.550001 0.25 3.6500001
23.550001 0.34999999 3.25
23.550001 0.34999999 3.3500001
23.550001 0.34999999 3.45
23.550001 0.34999999 3.75
23.550001 0.34999999 3.8500001
23.550001 0.34999999 3.95
23.550001 0.65000004 3.3500001
23.550001 0.65000004 3.45
23.550001 0.65000004 3.6500001
23.550001 0.65000004 3.75
23.550001 0.65000004 3.8500001
23.550001 0.65000004 3.95
23.550001 0.65000004 4.0500002
23.550001 0.65000004 4.1500001
23.550001 0.65000004 4.25
23.550001 0.65000004 4.3499999
23.550001 0.75 3.45
23.550001 0.75 3.55
23.550001 0.75 3.6500001
23.550001 0.75 3.75
23.550001 0.75 3.8500001
23.550001 0.85000002 3.3500001
23.550001 0.85000002 3.45
23.550001 0.85000002 3.55
23.550001 0.85000002 3.6500001
23.550001 0.85000002 3.8500001
23.550001 0.94999999 3.3500001
23.550001 0.94999999 3.45
23.550001 0.94999999 3.55
23.550001 0.94999999 3.6500001
23.550001 1.0500001 3.3500001
23.550001 1.0500001 3.45
23.550001 1.0500001 3.55
23.550001 1.0500001 3.6500001
23.550001 1.0500001 3.75
23.550001 1.15 3.3500001
23.550001 1.15 3.75
23.550001 1.25 3.75
23.550001 1.35 3.55
23.550001 1.35 3.6500001
23.550001 1.45 3.25
23.550001 1.45 3.3500001
23.550001 1.45 3.45
23.550001 1.45 3.55
23.550001 1.45 3.6500001
23.550001 1.5500001 3.25
23.550001 1.5500001 3.3500001
23.550001 1.5500001 3.45
23.550001 1.5500001 3.55
23.550001 1.65 3.25
23.550001 1.65 3.3500001
23.550001 1.65 3.45
23.550001 1.75 3.25
23.550001 1.75 3.3500001
23.550001 1.85 3.25
23.550001 1.85 3.3500001
23.550001 1.85 3.45
23.550001 1.95 3.25
23.550001 1.95 3.3500001
23.550001 1.95 3.45
23.550001 2.05 0.34999999
23.550001 2.05 0.45000002
23.550001 2.05 0.55000001
23.550001 2.05 0.65000004
23.550001 2.05 0.75
23.550001 2.05 0.85000002
23.550001 2.05 0.94999999
23.550001 2.05 1.0500001
23.550001 2.05 3.05
23.550001 2.05 3.1500001
23.550001 2.05 3.25
23.550001 2.05 3.3500001
23.550001 2.1500001 0.15000001
23.550001 2.1500001 0.25
23.550001 2.1500001 0.85000002
23.550001 2.1500001 0.94999999
23.550001 2.1500001 1.0500001
23.550001 2.1500001 1.15
23.550001 2.1500001 2.95
23.550001 2.1500001 3.05
23.550001 2.1500001 3.1500001
23.550001 2.1500001 3.25
23.550001 2.1500001 3.3500001
23.550001 2.25 0.050000001
23.550001 2.25 0.94999999
23.550001 2.25 1.0500001
23.550001 2.25 1.15
23.550001 2.25 1.25
23.550001 2.25 2.6500001
23.550001 2.25 2.75
23.550001 2.25 2.8500001
23.550001 2.25 2.95
23.550001 2.25 3.05
23.550001 2.25 3.1500001
23.550001 2.25 3.25
23.550001 2.3500001 1.0500001
23.550001 2.3500001 1.15
23.550001 2.3500001 1.25
23.550001 2.3500001 1.35
23.550001 2.3500001 1.45
23.550001 2.3500001 1.5500001
23.550001 2.3500001 1.65
23.550001 2.3500001 1.75
23.550001 2.3500001 1.85
23.550001 2.3500001 1.95
23.550001 2.3500001 2.05
23.550001 2.3500001 2.1500001
23.550001 2.3500001 2.25
23.550001 2.3500001 2.3500001
23.550001 2.3500001 2.45
23.550001 2.3500001 2.55
23.550001 2.3500001 2.6500001
23.550001 2.3500001 2.75
23.550001 2.3500001 2.8500001
23.550001 2.3500001 2.95
23.550001 2.3500001 3.05
23.550001 2.3500001 3.1500001
23.550001 2.45 1.45
23.550001 2.45 1.5500001
23.550001 2.45 1.65
23.550001 2.45 1.75
23.550001 2.45 1.85
23.550001 2.45 1.95
23.550001 2.45 2.05
23.550001 2.45 2.1500001
23.550001 2.45 2.25
23.550001 2.45 2.3500001
23.550001 2.45 2.45
23.550001 2.45 2.55
23.550001 2.45 2.6500001
23.550001 2.45 2.75
23.550001 2.55 1.85
23.550001 2.55 1.95
23.550001 2.6500001 1.25
23.550001 2.6500001 1.5500001
23.550001 2.75 1.35
23.550001 2.75 1.45
23.550001 2.75 1.5500001
23.550001 2.75 1.65
23.550001 2.8500001 1.35
23.550001 2.8500001 1.45
23.550001 2.8500001 1.5500001
23.550001 2.8500001 1.65
23.550001 2.8500001 1.75
23.550001 2.8500001 1.85
23.550001 2.8500001 2.55
23.550001 2.95 1.35
23.550001 2.95 1.45
23.550001 2.95 1.5500001
23.550001 2.95 1.65
23.550001 2.95 1.75
23.550001 2.95 1.85
23.550001 2.95 1.95
23.550001 2.95 2.05
23.550001 2.95 2.1500001
23.550001 2.95 2.25
23.550001 2.95 2.55
23.550001 3.05 1.15
23.550001 3.05 1.25
23.550001 3.05 1.35
23.550001 3.05 1.45
23.550001 3.05 1.65
23.550001 3.05 1.95
23.550001 3.05 2.05
23.550001 3.05 2.25
23.550001 3.05 2.3500001
23.550001 3.05 2.45
23.550001 3.05 2.55
23.550001 3.05 2.6500001
23.550001 3.05 2.75
23.550001 3.05 2.8500001
23.550001 3.05 2.95
23.550001 3.05 3.05
23.550001 3.1500001 1.15
23.550001 3.1500001 1.25
23.550001 3.1500001 1.35
23.550001 3.1500001 1.45
23.550001 3.1500001 1.65
23.550001 3.1500001 1.75
23.550001 3.1500001 1.85
23.550001 3.1500001 1.95
23.550001 3.1500001 2.05
23.550001 3.1500001 2.1500001
23.550001 3.1500001 2.6500001
23.550001 3.1500001 2.75
23.550001 3.1500001 2.8500001
23.550001 3.1500001 2.95
23.550001 3.1500001 3.05
23.550001 3.1500001 3.1500001
23.550001 3.25 1.15
23.550001 3.25 1.25
23.550001 3.25 1.35
23.550001 3.25 1.45
23.550001 3.25 1.65
23.550001 3.25 1.75
23.550001 3.25 1.85
23.550001 3.25 1.95
23.550001 3.25 2.05
23.550001 3.25 2.1500001
23.550001 3.25 3.05
23.550001 3.25 3.1500001
23.550001 3.25 3.25
23.550001 3.25 3.3500001
23.550001 3.3500001 1.25
23.550001 3.3500001 1.35
23.550001 3.3500001 1.45
23.550001 3.3500001 1.85
23.550001 3.3500001 1.95
23.550001 3.3500001 2.05
23.550001 3.3500001 2.1500001
23.550001 3.3500001 3.25
23.550001 3.45 1.85
23.550001 3.45 1.95
23.550001 3.45 2.1500001
23.550001 3.45 2.25
23.550001 3.45 3.25
23.550001 3.45 3.3500001
23.550001 3.45 3.45
23.550001 3.45 3.55
23.550001 3.55 1.45
23.550001 3.55 1.85
23.550001 3.55 1.95
23.550001 3.55 2.25
23.550001 3.55 3.25
23.550001 3.55 3.3500001
23.550001 3.55 3.45
23.550001 3.55 3.55
23.550001 3.6500001 1.45
23.550001 3.6500001 1.5500001
23.550001 3.6500001 1.85
23.550001 3.6500001 1.95
23.550001 3.6500001 3.25
23.550001 3.6500001 3.3500001
23.550001 3.6500001 3.45
23.550001 3.75 1.85
23.550001 3.75 1.95
23.550001 3.75 3.25
23.550001 4.0500002 3.3500001
23.550001 4.3499999 3.55
23.550001 4.4500003 3.55
23.550001 4.4500003 3.6500001
23.550001 4.5500002 3.6500001
23.65 -1.95 3.6500001
23.65 -1.85 0.94999999
23.65 -1.85 1.0500001
23.65 -1.85 3.6500001
23.65 -1.85 3.75
23.65 -1.75 0.94999999
23.65 -1.75 3.6500001
23.65 -1.65 3.55
23.65 -1.65 3.6500001
23.65 -1.5500001 3.45
23.65 -1.5500001 3.55
23.65 -1.5500001 3.6500001
23.65 -1.45 3.45
23.65 -1.45 3.55
23.65 -1.35 3.45
23.65 -1.35 3.55
23.65 -1.25 3.25
23.65 -1.25 3.3500001
23.65 -1.25 3.45
23.65 -1.15 3.25
23.65 -1.15 3.3500001
23.65 -1.0500001 3.1500001
23.65 -1.0500001 3.25
23.65 -1.0500001 3.3500001
23.65 -0.94999999 2.8500001
23.65 -0.94999999 2.95
23.65 -0.94999999 3.05
23.65 -0.94999999 3.1500001
23.65 -0.94999999 3.25
23.65 -0.85000002 2.6500001
23.65 -0.85000002 2.75
23.65 -0.85000002 2.8500001
23.65 -0.85000002 2.95
23.65 -0.85000002 3.05
23.65 -0.85000002 3.1500001
23.65 -0.75 2.1500001
23.65 -0.75 2.45
23.65 -0.75 2.55
23.65 -0.75 2.95
23.65 -0.75 3.05
23.65 -0.75 3.1500001
23.65 -0.65000004 1.15
23.65 -0.65000004 1.25
23.65 -0.65000004 2.1500001
23.65 -0.65000004 2.25
23.65 -0.65000004 2.95
23.65 -0.65000004 3.05
23.65 -0.55000001 2.25
23.65 -0.55000001 2.3500001
23.65 -0.55000001 2.8500001
23.65 -0.55000001 2.95
23.65 -0.45000002 1.85
23.65 -0.45000002 1.95
23.65 -0.45000002 2.05
23.65 -0.45000002 2.25
23.65 -0.45000002 2.3500001
23.65 -0.45000002 2.45
23.65 -0.45000002 2.75
23.65 -0.34999999 1.35
23.65 -0.34999999 1.75
23.65 -0.34999999 1.85
23.65 -0.34999999 1.95
23.65 -0.34999999 2.05
23.65 -0.34999999 2.1500001
23.65 -0.34999999 2.25
23.65 -0.25 1.85
23.65 -0.25 1.95
23.65 -0.25 2.05
23.65 -0.25 2.1500001
23.65 -0.050000001 1.0500001
23.65 -0.050000001 1.15
23.65 -0.050000001 1.25
23.65 -0.050000001 2.6500001
23.65 -0.050000001 2.75
23.65 -0.050000001 2.8500001
23.65 -0.050000001 2.95
23.65 -0.050000001 3.05
23.65 -0.050000001 4.0500002
23.65 -0.050000001 4.1500001
23.65 0.050000001 -0.050000001
23.65 0.050000001 0.25
23.65 0.050000001 0.34999999
23.65 0.050000001 0.45000002
23.65 0.050000001 0.55000001
23.65 0.050000001 0.94999999
23.65 0.050000001 1.0500001
23.65 0.050000001 1.15
23.65 0.050000001 1.25
23.65 0.050000001 1.35
23.65 0.050000001 1.45
23.65 0.050000001 1.5500001
23.65 0.050000001 1.65
23.65 0.050000001 1.75
23.65 0.050000001 1.85
23.65 0.050000001 1.95
23.65 0.050000001 2.05
23.65 0.050000001 2.1500001
23.65 0.050000001 2.25
23.65 0.050000001 2.3500001
23.65 0.050000001 2.45
23.65 0.050000001 2.55
23.65 0.050000001 2.6500001
23.65 0.050000001 2.75
23.65 0.050000001 2.8500001
23.65 0.050000001 2.95
23.65 0.050000001 3.05
23.65 0.050000001 3.1500001
23.65 0.15000001 -0.050000001
23.65 0.15000001 0.050000001
23.65 0.15000001 0.15000001
23.65 0.15000001 0.25
23.65 0.15000001 0.34999999
23.65 0.15000001 0.45000002
23.65 0.15000001 2.95
23.65 0.15000001 3.05
23.65 0.15000001 3.1500001
23.65 0.15000001 3.25
23.65 0.15000001 3.3500001
23.65 0.15000001 3.6500001
23.65 0.15000001 3.75
23.65 0.25 3.1500001
23.65 0.25 3.25
23.65 0.25 3.3500001
23.65 0.25 3.45
23.65 0.25 3.55
23.65 0.25 3.6500001
23.65 0.25 3.75
23.65 0.34999999 3.3500001
23.65 0.34999999 3.45
23.65 0.34999999 3.75
23.65 0.34999999 3.95
23.65 0.34999999 4.0500002
23.65 0.55000001 3.95
23.65 0.55000001 4.0500002
23.65 0.65000004 3.3500001
23.65 0.65000004 3.45
23.65 0.65000004 3.6500001
23.65 0.65000004 3.75
23.65 0.65000004 3.8500001
23.65 0.65000004 3.95
23.65 0.65000004 4.3499999
23.65 0.65000004 4.4500003
23.65 0.65000004 4.5500002
23.65 0.75 3.3500001
23.65 0.75 3.45
23.65 0.75 3.55
23.65 0.75 3.6500001
23.65 0.75 3.75
23.65 0.85000002 3.3500001
23.65 0.85000002 3.45
23.65 0.85000002 3.55
23.65 0.85000002 3.6500001
23.65 0.94999999 3.3500001
23.65 0.94999999 3.45
23.65 0.94999999 3.55
23.65 0.94999999 3.6500001
23.65 0.94999999 3.75
23.65 1.0500001 3.3500001
23.65 1.0500001 3.55
23.65 1.0500001 3.6500001
23.65 1.0500001 3.75
23.65 1.15 3.3500001
23.65 1.15 3.45
23.65 1.25 3.3500001
23.65 1.25 3.6500001
23.65 1.35 3.25
23.65 1.35 3.45
23.65 1.35 3.55
23.65 1.35 3.6500001
23.65 1.35 3.75
23.65 1.45 3.25
23.65 1.45 3.3500001
23.65 1.45 3.45
23.65 1.45 3.55
23.65 1.45 3.6500001
23.65 1.45 3.75
23.65 1.45 3.8500001
23.65 1.45 3.95
23.65 1.5500001 3.25
23.65 1.5500001 3.3500001
23.65 1.5500001 3.45
23.65 1.65 3.25
23.65 1.65 3.3500001
23.65 1.65 3.45
23.65 1.75 3.25
23.65 1.75 3.3500001
23.65 1.85 3.25
23.65 1.85 3.3500001
23.65 1.95 3.1500001
23.65 1.95 3.25
23.65 1.95 3.3500001
23.65 1.95 3.45
23.65 2.05 0.34999999
23.65 2.05 0.45000002
23.65 2.05 0.55000001
23.65 2.05 0.65000004
23.65 2.05 0.75
23.65 2.05 3.05
23.65 2.05 3.1500001
23.65 2.05 3.25
23.65 2.05 3.3500001
23.65 2.1500001 0.050000001
23.65 2.1500001 0.15000001
23.65 2.1500001 0.25
23.65 2.1500001 0.34999999
23.65 2.1500001 0.75
23.65 2.1500001 0.85000002
23.65 2.1500001 0.94999999
23.65 2.1500001 1.0500001
23.65 2.1500001 1.15
23.65 2.1500001 1.25
23.65 2.1500001 1.35
23.65 2.1500001 2.95
23.65 2.1500001 3.05
23.65 2.1500001 3.25
23.65 2.1500001 3.3500001
23.65 2.25 0.94999999
23.65 2.25 1.0500001
23.65 2.25 1.15
23.65 2.25 1.25
23.65 2.25 2.6500001
23.65 2.25 2.75
23.65 2.25 2.8500001
23.65 2.25 2.95
23.65 2.25 3.05
23.65 2.25 3.1500001
23.65 2.25 3.25
23.65 2.3500001 1.0500001
23.65 2.3500001 1.15
23.65 2.3500001 1.25
23.65 2.3500001 1.35
23.65 2.3500001 1.45
23.65 2.3500001 1.5500001
23.65 2.3500001 1.65
23.65 2.3500001 1.75
23.65 2.3500001 1.85
23.65 2.3500001 2.05
23.65 2.3500001 2.1500001
23.65 2.3500001 2.25
23.65 2.3500001 2.3500001
23.65 2.3500001 2.45
23.65 2.3500001 2.55
23.65 2.3500001 2.6500001
23.65 2.3500001 2.75
23.65 2.3500001 2.8500001
23.65 2.3500001 2.95
23.65 2.3500001 3.05
23.65 2.45 1.25
23.65 2.45 1.35
23.65 2.45 1.45
23.65 2.45 1.5500001
23.65 2.45 1.65
23.65 2.45 1.75
23.65 2.45 1.85
23.65 2.45 1.95
23.65 2.45 2.05
23.65 2.45 2.1500001
23.65 2.45 2.25
23.65 2.45 2.3500001
23.65 2.45 2.45
23.65 2.45 2.55
23.65 2.45 2.6500001
23.65 2.45 2.75
23.65 2.45 2.8500001
23.65 2.45 2.95
23.65 2.55 1.95
23.65 2.75 1.25
23.65 2.8500001 1.35
23.65 2.8500001 1.45
23.65 2.8500001 1.5500001
23.65 2.95 1.45
23.65 2.95 1.5500001
23.65 2.95 1.65
23.65 2.95 1.75
23.65 2.95 1.85
23.65 2.95 1.95
23.65 2.95 2.05
23.65 2.95 2.1500001
23.65 2.95 2.25
23.65 2.95 2.6500001
23.65 3.05 1.35
23.65 3.05 1.45
23.65 3.05 1.65
23.65 3.05 1.95
23.65 3.05 2.05
23.65 3.05 2.1500001
23.65 3.05 2.25
23.65 3.05 2.45
23.65 3.05 2.55
23.65 3.05 2.6500001
23.65 3.05 2.75
23.65 3.1500001 1.15
23.65 3.1500001 1.25
23.65 3.1500001 1.35
23.65 3.1500001 1.45
23.65 3.1500001 1.65
23.65 3.1500001 1.95
23.65 3.1500001 2.3500001
23.65 3.1500001 2.45
23.65 3.1500001 2.55
23.65 3.1500001 2.6500001
23.65 3.1500001 2.75
23.65 3.1500001 2.8500001
23.65 3.1500001 2.95
23.65 3.1500001 3.05
23.65 3.25 1.15
23.65 3.25 1.25
23.65 3.25 1.35
23.65 3.25 1.45
23.65 3.25 1.65
23.65 3.25 1.75
23.65 3.25 1.85
23.65 3.25 1.95
23.65 3.25 2.05
23.65 3.25 2.1500001
23.65 3.25 2.6500001
23.65 3.25 2.75
23.65 3.25 2.8500001
23.65 3.25 2.95
23.65 3.25 3.05
23.65 3.25 3.1500001
23.65 3.25 3.25
23.65 3.3500001 1.15
23.65 3.3500001 1.25
23.65 3.3500001 1.35
23.65 3.3500001 1.45
23.65 3.3500001 1.65
23.65 3.3500001 1.75
23.65 3.3500001 1.85
23.65 3.3500001 1.95
23.65 3.3500001 2.1500001
23.65 3.3500001 3.1500001
23.65 3.3500001 3.25
23.65 3.45 1.25
23.65 3.45 1.35
23.65 3.45 1.95
23.65 3.45 2.1500001
23.65 3.45 3.25
23.65 3.45 3.3500001
23.65 3.45 3.45
23.65 3.55 1.95
23.65 3.55 3.25
23.65 3.55 3.3500001
23.65 3.55 3.45
23.65 3.6500001 1.95
23.65 3.6500001 3.25
23.65 3.6500001 3.3500001
23.65 3.6500001 3.45
23.65 3.6500001 3.55
23.65 3.75 1.85
23.65 3.75 1.95
23.65 3.75 3.25
23.65 3.8500001 1.95
23.65 3.8500001 2.05
23.65 3.8500001 3.45
23.65 4.0500002 3.3500001
23.65 4.25 3.55
23.65 4.4500003 3.55
23.65 4.4500003 3.6500001
23.65 4.5500002 3.6500001
23.65 4.6500001 3.6500001
23.75 -2.05 3.75
23.75 -1.95 0.94999999
23.75 -1.95 1.0500001
23.75 -1.95 3.6500001
23.75 -1.95 3.75
23.75 -1.95 3.8500001
23.75 -1.85 0.94999999
23.75 -1.85 1.0500001
23.75 -1.85 3.6500001
23.75 -1.85 3.75
23.75 -1.75 3.6500001
23.75 -1.65 3.55
23.75 -1.65 3.6500001
23.75 -1.5500001 3.45
23.75 -1.5500001 3.55
23.75 -1.45 3.45
23.75 -1.45 3.55
23.75 -1.35 3.3500001
23.75 -1.35 3.45
23.75 -1.25 3.25
23.75 -1.25 3.3500001
23.75 -1.25 3.45
23.75 -1.15 3.1500001
23.75 -1.15 3.25
23.75 -1.15 3.3500001
23.75 -1.0500001 2.8500001
23.75 -1.0500001 2.95
23.75 -1.0500001 3.05
23.75 -1.0500001 3.1500001
23.75 -1.0500001 3.25
23.75 -0.94999999 2.55
23.75 -0.94999999 2.6500001
23.75 -0.94999999 2.75
23.75 -0.94999999 2.8500001
23.75 -0.94999999 2.95
23.75 -0.94999999 3.05
23.75 -0.94999999 3.1500001
23.75 -0.94999999 3.25
23.75 -0.85000002 1.0500001
23.75 -0.85000002 1.15
23.75 -0.85000002 2.45
23.75 -0.85000002 2.55
23.75 -0.85000002 2.6500001
23.75 -0.85000002 2.8500001
23.75 -0.85000002 2.95
23.75 -0.85000002 3.05
23.75 -0.85000002 3.1500001
23.75 -0.75 1.15
23.75 -0.75 1.25
23.75 -0.75 1.35
23.75 -0.75 1.45
23.75 -0.75 2.1500001
23.75 -0.75 2.3500001
23.75 -0.75 2.45
23.75 -0.75 3.05
23.75 -0.65000004 2.1500001
23.75 -0.65000004 2.3500001
23.75 -0.65000004 2.8500001
23.75 -0.65000004 2.95
23.75 -0.65000004 3.05
23.75 -0.55000001 2.3500001
23.75 -0.55000001 2.75
23.75 -0.55000001 2.8500001
23.75 -0.45000002 1.45
23.75 -0.45000002 1.5500001
23.75 -0.45000002 1.65
23.75 -0.45000002 1.95
23.75 -0.45000002 2.05
23.75 -0.45000002 2.1500001
23.75 -0.45000002 2.25
23.75 -0.34999999 1.75
23.75 -0.34999999 1.85
23.75 -0.34999999 1.95
23.75 -0.34999999 2.05
23.75 -0.34999999 2.1500001
23.75 -0.34999999 2.25
23.75 -0.25 2.05
23.75 -0.15000001 4.1500001
23.75 -0.15000001 4.25
23.75 -0.050000001 0.65000004
23.75 -0.050000001 0.75
23.75 -0.050000001 1.0500001
23.75 -0.050000001 1.15
23.75 -0.050000001 1.25
23.75 -0.050000001 1.85
23.75 -0.050000001 2.45
23.75 -0.050000001 2.55
23.75 -0.050000001 2.6500001
23.75 -0.050000001 2.75
23.75 -0.050000001 2.8500001
23.75 -0.050000001 4.1500001
23.75 0.050000001 -0.15000001
23.75 0.050000001 0.25
23.75 0.050000001 0.34999999
23.75 0.050000001 0.45000002
23.75 0.050000001 0.55000001
23.75 0.050000001 0.65000004
23.75 0.050000001 0.75
23.75 0.050000001 0.85000002
23.75 0.050000001 0.94999999
23.75 0.050000001 1.15
23.75 0.050000001 1.25
23.75 0.050000001 1.35
23.75 0.050000001 1.45
23.75 0.050000001 1.5500001
23.75 0.050000001 1.65
23.75 0.050000001 1.75
23.75 0.050000001 1.85
23.75 0.050000001 1.95
23.75 0.050000001 2.05
23.75 0.050000001 2.1500001
23.75 0.050000001 2.25
23.75 0.050000001 2.3500001
23.75 0.050000001 2.45
23.75 0.050000001 2.55
23.75 0.050000001 2.6500001
23.75 0.050000001 2.75
23.75 0.050000001 2.8500001
23.75 0.050000001 2.95
23.75 0.050000001 3.05
23.75 0.050000001 3.1500001
23.75 0.050000001 3.25
23.75 0.15000001 -0.15000001
23.75 0.15000001 -0.050000001
23.75 0.15000001 0.050000001
23.75 0.15000001 0.15000001
23.75 0.15000001 0.25
23.75 0.15000001 0.34999999
23.75 0.15000001 2.95
23.75 0.15000001 3.05
23.75 0.15000001 3.1500001
23.75 0.15000001 3.25
23.75 0.15000001 3.3500001
23.75 0.15000001 3.75
23.75 0.15000001 3.8500001
23.75 0.25 3.1500001
23.75 0.25 3.25
23.75 0.25 3.3500001
23.75 0.25 3.45
23.75 0.25 3.55
23.75 0.25 3.6500001
23.75 0.25 3.75
23.75 0.34999999 3.3500001
23.75 0.34999999 3.45
23.75 0.34999999 3.55
23.75 0.34999999 3.6500001
23.75 0.34999999 4.0500002
23.75 0.34999999 4.1500001
23.75 0.55000001 3.3500001
23.75 0.55000001 3.6500001
23.75 0.55000001 3.8500001
23.75 0.55000001 4.25
23.75 0.55000001 4.3499999
23.75 0.55000001 4.4500003
23.75 0.55000001 4.5500002
23.75 0.65000004 3.3500001
23.75 0.65000004 3.45
23.75 0.65000004 3.6500001
23.75 0.65000004 3.75
23.75 0.65000004 3.8500001
23.75 0.65000004 3.95
23.75 0.65000004 4.5500002
23.75 0.65000004 4.6500001
23.75 0.75 3.3500001
23.75 0.75 3.45
23.75 0.75 3.55
23.75 0.75 3.6500001
23.75 0.75 3.75
23.75 0.85000002 3.3500001
23.75 0.85000002 3.45
23.75 0.85000002 3.55
23.75 0.85000002 3.95
23.75 0.94999999 3.3500001
23.75 0.94999999 3.45
23.75 0.94999999 3.55
23.75 0.94999999 3.75
23.75 1.0500001 3.3500001
23.75 1.0500001 3.45
23.75 1.0500001 3.55
23.75 1.0500001 3.6500001
23.75 1.0500001 3.75
23.75 1.15 3.3500001
23.75 1.15 3.55
23.75 1.15 3.6500001
23.75 1.15 3.75
23.75 1.25 3.25
23.75 1.25 3.3500001
23.75 1.25 3.55
23.75 1.25 3.6500001
23.75 1.25 3.75
23.75 1.35 3.25
23.75 1.35 3.45
23.75 1.35 3.55
23.75 1.35 3.6500001
23.75 1.35 3.75
23.75 1.35 3.8500001
23.75 1.45 3.25
23.75 1.45 3.3500001
23.75 1.45 3.45
23.75 1.45 3.55
23.75 1.45 3.6500001
23.75 1.45 3.75
23.75 1.45 3.8500001
23.75 1.45 3.95
23.75 1.5500001 3.25
23.75 1.5500001 3.3500001
23.75 1.5500001 3.45
23.75 1.65 3.25
23.75 1.65 3.3500001
23.75 1.65 3.45
23.75 1.65 4.5500002
23.75 1.75 3.25
23.75 1.75 3.3500001
23.75 1.75 3.45
23.75 1.85 3.3500001
23.75 1.85 3.45
23.75 1.95 3.1500001
23.75 1.95 3.25
23.75 1.95 3.3500001
23.75 1.95 3.45
23.75 2.05 0.34999999
23.75 2.05 0.45000002
23.75 2.05 0.55000001
23.75 2.05 3.05
23.75 2.05 3.1500001
23.75 2.05 3.25
23.75 2.05 3.3500001
23.75 2.1500001 0.050000001
23.75 2.1500001 0.15000001
23.75 2.1500001 0.25
23.75 2.1500001 0.34999999
23.75 2.1500001 0.55000001
23.75 2.1500001 0.65000004
23.75 2.1500001 0.75
23.75 2.1500001 0.85000002
23.75 2.1500001 0.94999999
23.75 2.1500001 1.0500001
23.75 2.1500001 1.15
23.75 2.1500001 1.25
23.75 2.1500001 2.95
23.75 2.1500001 3.05
23.75 2.1500001 3.1500001
23.75 2.1500001 3.25
23.75 2.1500001 3.3500001
23.75 2.25 0.94999999
23.75 2.25 1.0500001
23.75 2.25 1.15
23.75 2.25 1.25
23.75 2.25 2.75
23.75 2.25 2.8500001
23.75 2.25 2.95
23.75 2.25 3.05
23.75 2.25 3.1500001
23.75 2.25 3.25
23.75 2.3500001 1.0500001
23.75 2.3500001 1.15
23.75 2.3500001 1.25
23.75 2.3500001 1.35
23.75 2.3500001 2.45
23.75 2.3500001 2.55
23.75 2.3500001 2.6500001
23.75 2.3500001 2.75
23.75 2.3500001 2.8500001
23.75 2.3500001 2.95
23.75 2.3500001 3.05
23.75 2.45 1.0500001
23.75 2.45 1.15
23.75 2.45 1.25
23.75 2.45 1.35
23.75 2.45 1.45
23.75 2.45 1.5500001
23.75 2.45 1.65
23.75 2.45 1.75
23.75 2.45 1.85
23.75 2.45 1.95
23.75 2.45 2.05
23.75 2.45 2.1500001
23.75 2.45 2.25
23.75 2.45 2.3500001
23.75 2.45 2.45
23.75 2.45 2.55
23.75 2.45 2.6500001
23.75 2.45 2.8500001
23.75 2.55 1.95
23.75 2.75 1.25
23.75 2.8500001 1.35
23.75 2.8500001 1.95
23.75 2.95 1.35
23.75 2.95 1.45
23.75 2.95 1.5500001
23.75 2.95 1.65
23.75 3.05 1.35
23.75 3.05 1.45
23.75 3.05 1.5500001
23.75 3.05 1.85
23.75 3.05 2.1500001
23.75 3.05 2.25
23.75 3.05 2.6500001
23.75 3.1500001 1.15
23.75 3.1500001 1.35
23.75 3.1500001 1.45
23.75 3.1500001 1.65
23.75 3.1500001 2.3500001
23.75 3.1500001 2.45
23.75 3.1500001 2.55
23.75 3.1500001 2.6500001
23.75 3.1500001 2.75
23.75 3.25 1.15
23.75 3.25 1.25
23.75 3.25 1.35
23.75 3.25 1.45
23.75 3.25 1.65
23.75 3.25 1.75
23.75 3.25 1.85
23.75 3.25 1.95
23.75 3.25 2.05
23.75 3.25 2.45
23.75 3.25 2.6500001
23.75 3.25 2.75
23.75 3.25 2.8500001
23.75 3.25 2.95
23.75 3.25 3.05
23.75 3.25 3.1500001
23.75 3.3500001 1.0500001
23.75 3.3500001 1.15
23.75 3.3500001 1.25
23.75 3.3500001 1.35
23.75 3.3500001 1.65
23.75 3.3500001 1.75
23.75 3.3500001 1.85
23.75 3.3500001 1.95
23.75 3.3500001 2.1500001
23.75 3.3500001 2.95
23.75 3.3500001 3.05
23.75 3.3500001 3.1500001
23.75 3.3500001 3.25
23.75 3.45 1.25
23.75 3.45 1.95
23.75 3.45 2.1500001
23.75 3.45 2.25
23.75 3.45 3.25
23.75 3.45 3.3500001
23.75 3.55 1.35
23.75 3.55 1.95
23.75 3.55 2.05
23.75 3.55 2.1500001
23.75 3.55 3.25
23.75 3.55 3.3500001
23.75 3.55 3.45
23.75 3.55 3.55
23.75 3.6500001 1.95
23.75 3.6500001 2.05
23.75 3.6500001 3.25
23.75 3.6500001 3.3500001
23.75 3.6500001 3.45
23.75 3.75 1.35
23.75 3.75 1.95
23.75 3.75 3.25
23.75 3.75 3.3500001
23.75 3.75 3.45
23.75 3.75 3.6500001
23.75 3.8500001 1.95
23.75 3.8500001 2.05
23.75 3.8500001 3.45
23.75 3.95 2.05
23.75 3.95 3.3500001
23.75 3.95 3.45
23.75 4.0500002 3.45
23.75 4.1500001 3.25
23.75 4.1500001 3.45
23.75 4.4500003 3.45
23.75 4.4500003 3.55
23.75 4.5500002 3.1500001
23.75 4.5500002 3.45
23.75 4.5500002 3.55
23.75 4.6500001 3.6500001
23.85 -2.1500001 3.75
23.85 -2.1500001 3.8500001
23.85 -2.05 0.94999999
23.85 -2.05 1.0500001
23.85 -2.05 3.75
23.85 -2.05 3.8500001
23.85 -1.95 0.94999999
23.85 -1.95 1.0500001
23.85 -1.95 3.75
23.85 -1.85 3.6500001
23.85 -1.85 3.75
23.85 -1.75 3.55
23.85 -1.75 3.6500001
23.85 -1.65 3.55
23.85 -1.65 3.6500001
23.85 -1.5500001 3.45
23.85 -1.5500001 3.55
23.85 -1.45 3.45
23.85 -1.45 3.55
23.85 -1.35 3.25
23.85 -1.35 3.3500001
23.85 -1.35 3.45
23.85 -1.25 3.1500001
23.85 -1.25 3.25
23.85 -1.25 3.3500001
23.85 -1.15 2.95
23.85 -1.15 3.05
23.85 -1.15 3.1500001
23.85 -1.15 3.25
23.85 -1.0500001 2.6500001
23.85 -1.0500001 2.75
23.85 -1.0500001 2.8500001
23.85 -1.0500001 2.95
23.85 -1.0500001 3.05
23.85 -1.0500001 3.1500001
23.85 -0.94999999 1.0500001
23.85 -0.94999999 1.15
23.85 -0.94999999 1.25
23.85 -0.94999999 1.35
23.85 -0.94999999 2.55
23.85 -0.94999999 2.6500001
23.85 -0.94999999 2.75
23.85 -0.94999999 3.05
23.85 -0.94999999 3.1500001
23.85 -0.85000002 1.0500001
23.85 -0.85000002 1.15
23.85 -0.85000002 1.35
23.85 -0.85000002 2.45
23.85 -0.85000002 3.05
23.85 -0.85000002 3.1500001
23.85 -0.75 1.25
23.85 -0.75 1.35
23.85 -0.75 2.1500001
23.85 -0.75 2.25
23.85 -0.75 2.3500001
23.85 -0.75 3.05
23.85 -0.75 3.1500001
23.85 -0.65000004 1.95
23.85 -0.65000004 2.05
23.85 -0.65000004 2.3500001
23.85 -0.65000004 2.45
23.85 -0.65000004 2.55
23.85 -0.65000004 2.6500001
23.85 -0.65000004 2.75
23.85 -0.65000004 2.8500001
23.85 -0.65000004 2.95
23.85 -0.65000004 3.05
23.85 -0.55000001 1.85
23.85 -0.55000001 1.95
23.85 -0.55000001 2.1500001
23.85 -0.55000001 2.45
23.85 -0.55000001 2.6500001
23.85 -0.55000001 2.75
23.85 -0.45000002 1.35
23.85 -0.45000002 1.45
23.85 -0.45000002 1.5500001
23.85 -0.45000002 1.75
23.85 -0.45000002 1.85
23.85 -0.45000002 1.95
23.85 -0.45000002 2.05
23.85 -0.45000002 2.25
23.85 -0.15000001 4.25
23.85 -0.15000001 4.3499999
23.85 -0.050000001 0.75
23.85 -0.050000001 1.0500001
23.85 -0.050000001 1.45
23.85 -0.050000001 1.5500001
23.85 -0.050000001 1.65
23.85 -0.050000001 1.75
23.85 -0.050000001 1.85
23.85 -0.050000001 1.95
23.85 -0.050000001 2.05
23.85 -0.050000001 2.1500001
23.85 -0.050000001 2.25
23.85 -0.050000001 2.3500001
23.85 -0.050000001 2.45
23.85 -0.050000001 2.55
23.85 -0.050000001 2.6500001
23.85 -0.050000001 2.75
23.85 -0.050000001 2.8500001
23.85 0.050000001 -0.15000001
23.85 0.050000001 0.15000001
23.85 0.050000001 0.25
23.85 0.050000001 0.34999999
23.85 0.050000001 0.45000002
23.85 0.050000001 0.55000001
23.85 0.050000001 0.65000004
23.85 0.050000001 0.75
23.85 0.050000001 0.85000002
23.85 0.050000001 1.15
23.85 0.050000001 1.25
23.85 0.050000001 1.35
23.85 0.050000001 1.65
23.85 0.050000001 1.75
23.85 0.050000001 1.95
23.85 0.050000001 2.05
23.85 0.050000001 2.1500001
23.85 0.050000001 2.25
23.85 0.050000001 2.3500001
23.85 0.050000001 2.45
23.85 0.050000001 2.55
23.85 0.050000001 2.6500001
23.85 0.050000001 2.75
23.85 0.050000001 2.8500001
23.85 0.050000001 2.95
23.85 0.050000001 3.05
23.85 0.050000001 3.1500001
23.85 0.050000001 3.25
23.85 0.15000001 0.050000001
23.85 0.15000001 0.25
23.85 0.15000001 2.95
23.85 0.15000001 3.05
23.85 0.15000001 3.1500001
23.85 0.15000001 3.25
23.85 0.15000001 3.8500001
23.85 0.15000001 3.95
23.85 0.15000001 4.25
23.85 0.25 3.1500001
23.85 0.25 3.25
23.85 0.25 3.3500001
23.85 0.25 3.45
23.85 0.25 3.55
23.85 0.25 3.6500001
23.85 0.25 3.75
23.85 0.25 3.8500001
23.85 0.34999999 3.3500001
23.85 0.34999999 3.45
23.85 0.34999999 3.55
23.85 0.34999999 3.6500001
23.85 0.34999999 3.75
23.85 0.34999999 4.1500001
23.85 0.34999999 4.25
23.85 0.45000002 3.3500001
23.85 0.45000002 4.1500001
23.85 0.45000002 4.25
23.85 0.55000001 3.3500001
23.85 0.55000001 3.6500001
23.85 0.55000001 3.8500001
23.85 0.55000001 3.95
23.85 0.55000001 4.0500002
23.85 0.55000001 4.1500001
23.85 0.55000001 4.3499999
23.85 0.55000001 4.4500003
23.85 0.55000001 4.5500002
23.85 0.55000001 4.6500001
23.85 0.65000004 3.6500001
23.85 0.65000004 3.75
23.85 0.65000004 3.8500001
23.85 0.65000004 3.95
23.85 0.65000004 4.0500002
23.85 0.65000004 4.6500001
23.85 0.65000004 4.75
23.85 0.75 3.45
23.85 0.75 3.55
23.85 0.75 3.6500001
23.85 0.85000002 3.3500001
23.85 0.85000002 3.45
23.85 0.85000002 3.55
23.85 0.85000002 4.0500002
23.85 0.94999999 3.3500001
23.85 0.94999999 3.45
23.85 0.94999999 3.55
23.85 1.0500001 3.3500001
23.85 1.0500001 3.45
23.85 1.0500001 3.55
23.85 1.0500001 3.6500001
23.85 1.0500001 3.75
23.85 1.0500001 3.8500001
23.85 1.15 3.3500001
23.85 1.15 3.45
23.85 1.15 3.55
23.85 1.15 3.6500001
23.85 1.15 3.75
23.85 1.25 3.55
23.85 1.25 3.6500001
23.85 1.25 3.75
23.85 1.35 3.25
23.85 1.35 3.45
23.85 1.35 3.55
23.85 1.35 3.6500001
23.85 1.35 3.75
23.85 1.35 3.8500001
23.85 1.45 3.25
23.85 1.45 3.3500001
23.85 1.45 3.45
23.85 1.45 3.55
23.85 1.45 3.95
23.85 1.45 4.0500002
23.85 1.5500001 3.25
23.85 1.5500001 3.3500001
23.85 1.5500001 3.45
23.85 1.65 3.25
23.85 1.65 3.3500001
23.85 1.65 3.45
23.85 1.75 3.3500001
23.85 1.75 3.45
23.85 1.85 3.25
23.85 1.85 3.3500001
23.85 1.85 3.45
23.85 1.95 3.25
23.85 1.95 3.3500001
23.85 1.95 3.45
23.85 2.05 3.05
23.85 2.05 3.1500001
23.85 2.05 3.25
23.85 2.05 3.3500001
23.85 2.1500001 0.050000001
23.85 2.1500001 0.15000001
23.85 2.1500001 0.25
23.85 2.1500001 0.34999999
23.85 2.1500001 0.45000002
23.85 2.1500001 0.55000001
23.85 2.1500001 0.65000004
23.85 2.1500001 0.75
23.85 2.1500001 0.85000002
23.85 2.1500001 0.94999999
23.85 2.1500001 1.0500001
23.85 2.1500001 1.15
23.85 2.1500001 1.25
23.85 2.1500001 2.95
23.85 2.1500001 3.05
23.85 2.1500001 3.1500001
23.85 2.1500001 3.25
23.85 2.1500001 3.3500001
23.85 2.25 0.94999999
23.85 2.25 1.0500001
23.85 2.25 1.15
23.85 2.25 1.25
23.85 2.25 2.75
23.85 2.25 2.8500001
23.85 2.25 2.95
23.85 2.25 3.05
23.85 2.25 3.1500001
23.85 2.3500001 1.15
23.85 2.3500001 1.25
23.85 2.3500001 1.35
23.85 2.3500001 2.55
23.85 2.3500001 2.6500001
23.85 2.3500001 2.75
23.85 2.3500001 2.8500001
23.85 2.3500001 2.95
23.85 2.3500001 3.05
23.85 2.45 1.25
23.85 2.45 1.35
23.85 2.45 1.45
23.85 2.45 1.5500001
23.85 2.45 1.65
23.85 2.45 1.75
23.85 2.45 1.85
23.85 2.45 1.95
23.85 2.45 2.05
23.85 2.45 2.1500001
23.85 2.45 2.25
23.85 2.45 2.3500001
23.85 2.45 2.45
23.85 2.45 2.55
23.85 2.45 2.6500001
23.85 2.95 1.45
23.85 2.95 1.5500001
23.85 2.95 1.75
23.85 2.95 1.95
23.85 3.05 1.75
23.85 3.05 2.05
23.85 3.05 2.1500001
23.85 3.05 2.25
23.85 3.05 2.6500001
23.85 3.1500001 1.35
23.85 3.1500001 2.25
23.85 3.1500001 2.6500001
23.85 3.25 1.15
23.85 3.25 1.25
23.85 3.25 1.35
23.85 3.25 1.45
23.85 3.25 1.75
23.85 3.25 2.3500001
23.85 3.25 2.45
23.85 3.25 2.55
23.85 3.25 2.6500001
23.85 3.25 2.75
23.85 3.25 2.8500001
23.85 3.25 2.95
23.85 3.3500001 1.25
23.85 3.3500001 1.45
23.85 3.3500001 1.75
23.85 3.3500001 1.85
23.85 3.3500001 1.95
23.85 3.3500001 2.05
23.85 3.3500001 2.6500001
23.85 3.3500001 2.75
23.85 3.3500001 2.8500001
23.85 3.3500001 2.95
23.85 3.3500001 3.05
23.85 3.3500001 3.1500001
23.85 3.3500001 3.25
23.85 3.45 1.0500001
23.85 3.45 1.25
23.85 3.45 1.95
23.85 3.45 2.25
23.85 3.45 2.95
23.85 3.45 3.05
23.85 3.45 3.1500001
23.85 3.45 3.25
23.85 3.45 3.3500001
23.85 3.55 1.15
23.85 3.55 1.25
23.85 3.55 1.35
23.85 3.55 1.95
23.85 3.55 2.05
23.85 3.55 2.25
23.85 3.55 3.25
23.85 3.55 3.3500001
23.85 3.6500001 1.35
23.85 3.6500001 2.05
23.85 3.6500001 3.25
23.85 3.6500001 3.3500001
23.85 3.6500001 3.45
23.85 3.75 3.25
23.85 3.75 3.3500001
23.85 3.75 3.45
23.85 3.8500001 1.35
23.85 3.8500001 3.25
23.85 3.8500001 3.3500001
23.85 3.8500001 3.45
23.85 3.8500001 3.6500001
23.85 3.95 2.05
23.85 3.95 3.25
23.85 3.95 3.3500001
23.85 3.95 3.45
23.85 4.0500002 3.3500001
23.85 4.0500002 3.45
23.85 4.1500001 3.3500001
23.85 4.1500001 3.45
23.85 4.25 3.45
23.85 4.4500003 3.3500001
23.85 4.4500003 3.45
23.85 4.5500002 3.3500001
